# .PCD v0.7 - Point Cloud Data file format
VERSION 0.7
FIELDS x y z
SIZE 4 4 4
TYPE F F F
COUNT 1 1 1
WIDTH 1296
HEIGHT 1
VIEWPOINT 0 0 0 1 0 0 0
POINTS 1296
DATA ascii
0.021427955 0.014637445 -0.104982
-0.020988507 0.022088068 -0.10517072
-0.017324349 0.02724972 -0.10542004
0.016223662 0.025564432 -0.10469331
-0.012800949 0.033455163 -0.10476276
-0.0075130207 0.038790576 -0.1047397
0.0062048542 0.037952967 -0.1042688
0.011348733 0.032314766 -0.10521013
-0.002608282 0.040925711 -0.10543273
0.0011966059 0.040706273 -0.10455048
-0.067287005 -0.010545563 -0.094302543
0.065365896 -0.010868618 -0.095895357
-0.062595703 -0.0078318939 -0.095435724
-0.054492194 -0.0046609668 -0.095445171
-0.04733111 -0.002182557 -0.095620811
0.037198156 -0.001252354 -0.094448909
0.044832289 -0.0025026321 -0.094765589
0.055395424 -0.0055832607 -0.094586886
0.062276684 -0.0085035115 -0.094928764
-0.035154879 0.0025410631 -0.094046697
-0.025425877 0.0075726844 -0.09521316
0.025511108 0.0054168208 -0.095983572
0.033455722 0.0011352068 -0.094364829
-0.023003871 0.015019005 -0.094862252
0.01950562 0.018847652 -0.095162556
0.021215606 0.014237936 -0.094934836
-0.020604121 0.021701893 -0.096176922
-0.016783034 0.026653701 -0.095288537
0.015465235 0.02549273 -0.095560864
-0.012076227 0.03315869 -0.095725819
-0.0061042812 0.038002089 -0.094760761
0.0047561196 0.037449498 -0.094428569
0.01109128 0.031331234 -0.094626084
-0.0010572335 0.040251408 -0.098177731
0.0011532919 0.040094733 -0.099076234
-0.070432052 -0.010703102 -0.081082627
-0.069064513 -0.010658314 -0.086986527
0.067807905 -0.010575335 -0.084960908
-0.06520541 -0.0080688428 -0.084728487
-0.05515046 -0.0044550933 -0.085172519
-0.043303188 -0.0017898991 -0.084824957
-0.037786011 -0.00058794959 -0.083123751
0.037514683 -0.0010524907 -0.084965862
0.044611152 -0.002283582 -0.085240208
0.055171005 -0.0050005456 -0.084524833
0.0635437 -0.0081125414 -0.085321687
-0.040033057 0.00051875203 -0.088474795
-0.034081042 0.0014418819 -0.085005775
-0.027360855 0.0045264037 -0.085028283
0.025587771 0.0047119935 -0.084666595
0.033681333 0.0012986879 -0.085786521
-0.02266939 0.014604332 -0.085697345
0.01948471 0.01767855 -0.085016467
0.021354148 0.012800358 -0.085512765
-0.020320589 0.020474307 -0.084623381
-0.01646319 0.025818497 -0.085030042
0.014997621 0.025237508 -0.085279882
-0.01161914 0.032068569 -0.085132405
-0.0046161348 0.037440043 -0.085287094
0.0055944556 0.035587661 -0.085036203
0.010739251 0.030850498 -0.086602092
-0.071688257 -0.010756131 -0.074146099
0.069417126 -0.010804312 -0.078290962
0.070747025 -0.011053992 -0.072263159
-0.070371799 -0.0096643483 -0.075417697
-0.065362856 -0.0074371947 -0.075021856
-0.054975864 -0.0041372469 -0.07545121
-0.046076376 -0.0013825934 -0.0749093
0.044271767 -0.001372183 -0.075469457
0.054781083 -0.0045443391 -0.074808829
0.064787619 -0.0077995206 -0.075063683
0.070035733 -0.0099985003 -0.0716912
-0.040879939 0.00036771415 -0.07728631
-0.034558054 0.0025078466 -0.074533984
-0.026324851 0.0058749393 -0.07498724
0.024081403 0.0064558019 -0.075061895
0.034289859 0.0019259949 -0.075098537
0.040064096 2.2068853e-06 -0.073932067
-0.021661351 0.015104776 -0.07515084
-0.019775491 0.019969704 -0.073315866
0.019253904 0.016959511 -0.073801473
0.020680318 0.012418482 -0.074217238
-0.020107517 0.020090137 -0.079126038
-0.015807943 0.02542367 -0.074784942
0.014426133 0.024993438 -0.074827097
-0.011322741 0.03123742 -0.076180957
-0.0054015806 0.035804529 -0.075089112
0.0065814885 0.033857591 -0.075758547
0.010149833 0.030502178 -0.075561017
-0.073202066 -0.010611535 -0.064851612
0.071891658 -0.010889234 -0.06563931
-0.071713574 -0.0092970887 -0.063828632
-0.065243132 -0.0068368106 -0.06501729
-0.054642577 -0.0037656466 -0.065187827
-0.046322957 -0.0013426003 -0.06548807
0.045692459 -0.0016133402 -0.064812824
0.054722629 -0.0041950969 -0.064768054
0.065989979 -0.0076334081 -0.066019297
0.070808798 -0.0094484603 -0.06350401
-0.040479146 0.000504 -0.065756299
-0.03571225 0.0017985583 -0.065073371
-0.024841361 0.0065642027 -0.065228924
0.02447894 0.0055401656 -0.06506975
0.035009593 0.0016076718 -0.06600628
0.040261716 4.1165309e-05 -0.068439208
-0.021309014 0.014461241 -0.064789005
-0.019597745 0.019020965 -0.064449951
0.018743094 0.01715016 -0.064676352
0.020571992 0.0117867 -0.065148577
-0.015478889 0.02479553 -0.065174341
0.0097384499 0.02975513 -0.062028985
0.013475313 0.025229728 -0.065470397
-0.010766894 0.030789079 -0.066596374
-0.0054545919 0.034620564 -0.065051302
0.0048942138 0.034029502 -0.064918913
-0.075203069 -0.010763624 -0.053892713
0.073840082 -0.010796066 -0.055113781
-0.07251621 -0.0089579606 -0.055063985
-0.065062024 -0.0063860705 -0.054939568
-0.055119146 -0.0036646288 -0.055149518
-0.046624184 -0.0013441654 -0.054707199
0.045337979 -0.0013737809 -0.054606091
0.05500482 -0.0039994349 -0.054947816
0.065579496 -0.006965844 -0.055672683
0.071982928 -0.0091663385 -0.053986814
-0.040657219 0.00031343088 -0.053667188
-0.034885813 0.0019678918 -0.054928768
-0.024251105 0.0063779261 -0.055142164
0.023661373 0.0058507486 -0.055327624
0.035292193 0.0013816553 -0.054028917
0.040046543 6.8281894e-05 -0.05058198
-0.021102834 0.013449455 -0.055089537
-0.018970134 0.018414382 -0.052326005
0.01863067 0.0160549 -0.053661671
0.020316917 0.011548722 -0.055567514
-0.014190866 0.025127629 -0.054576755
-0.0098141041 0.02994008 -0.050213404
0.0093668848 0.029456176 -0.054666001
0.014068431 0.023594569 -0.055269361
-0.0054206965 0.033510134 -0.054810528
0.004919942 0.032927964 -0.05465579
-0.076017804 -0.010512199 -0.045541003
0.074731641 -0.010518653 -0.046808574
-0.07236357 -0.0084652063 -0.044762649
-0.064484432 -0.0061217556 -0.045094505
-0.055475991 -0.0037155198 -0.045303807
-0.045179412 -0.0010564649 -0.045029186
0.039711371 -1.6402213e-05 -0.04053361
0.044087313 -0.001111926 -0.045096904
0.054000136 -0.0036497198 -0.044004992
0.065080412 -0.0065015908 -0.044722699
0.072106265 -0.008721156 -0.044885185
-0.040555891 0.00014857204 -0.043507215
-0.035178974 0.0015287427 -0.044891298
-0.024291525 0.0060201837 -0.044569459
0.024526713 0.0047862385 -0.045112051
0.034323644 0.0013871784 -0.044492513
-0.020972526 0.012388234 -0.046195492
-0.018503057 0.018101659 -0.044583742
0.018299239 0.01581924 -0.045049813
0.02023408 0.010604624 -0.045091286
-0.013855644 0.024449131 -0.044831827
-0.0092529943 0.029532053 -0.043705959
0.0091055837 0.028776472 -0.045999095
0.012713796 0.024289351 -0.044926453
-0.0044274982 0.032893497 -0.045863483
0.0041003441 0.032331735 -0.044866443
-0.076786503 -0.010530981 -0.037787348
0.076282181 -0.010931619 -0.034498513
-0.073480561 -0.0086410912 -0.034809723
-0.064330496 -0.0060936017 -0.035303462
-0.054490674 -0.003495272 -0.034623042
-0.045094281 -0.0012543865 -0.034815885
0.039606411 -0.00012574105 -0.035779417
0.044605643 -0.0014076848 -0.035049785
0.054488488 -0.0037735838 -0.034453951
0.064456642 -0.0062190983 -0.035368875
0.073228076 -0.0087018218 -0.034215476
-0.040346347 6.8771187e-06 -0.036757503
-0.035666194 0.001030929 -0.035065714
-0.024487128 0.0051651611 -0.034677409
0.023891464 0.0050820708 -0.035093158
0.034783691 0.00093835389 -0.034600098
-0.020456657 0.01222791 -0.035731416
-0.018494997 0.016633015 -0.034908894
0.01793508 0.015259651 -0.034537032
0.020042669 0.010583838 -0.039802041
-0.013404083 0.023906587 -0.035407111
-0.0084884958 0.028870165 -0.034312498
0.0078996234 0.028598392 -0.035757817
0.012414784 0.023697305 -0.034479309
-0.0038799599 0.03138797 -0.034193464
0.0030999663 0.031433951 -0.035397708
-0.083101846 -0.012106632 -0.023081588
-0.078918092 -0.011325692 -0.027102696
0.078390338 -0.011019509 -0.027712543
0.083303824 -0.011809791 -0.023618521
-0.080377735 -0.0098718274 -0.021270502
-0.074223496 -0.0086849062 -0.024701074
-0.064387068 -0.0061221924 -0.024552569
-0.055291262 -0.0038119082 -0.024523793
-0.045364972 -0.0015366265 -0.025713496
-0.039753031 -0.00023907454 -0.024935482
0.038569547 -0.00021884256 -0.024243623
0.045379426 -0.0017891547 -0.025097208
0.05437497 -0.0038179907 -0.024954207
0.065259151 -0.0063354126 -0.025514834
0.074622713 -0.008743437 -0.023661407
0.080673993 -0.0098625729 -0.020833462
-0.033878852 0.0010870555 -0.024991279
-0.024376307 0.0047558262 -0.024863325
0.01984028 0.0095682759 -0.023783842
0.024565119 0.0038823297 -0.024824481
0.034148797 0.00081688887 -0.025537999
-0.020258686 0.011179641 -0.025385339
-0.017885283 0.016239164 -0.024673291
0.017510101 0.015093948 -0.024979346
-0.012896217 0.02334271 -0.025140353
-0.0070943618 0.02847282 -0.025010852
0.0067016161 0.027998306 -0.024545779
0.01231028 0.02303547 -0.026080852
-0.0019899537 0.030730467 -0.026191743
0.0018988799 0.030666387 -0.027486423
-0.093517505 -0.013043665 -0.013217229
-0.087726913 -0.011791525 -0.016633691
0.087653257 -0.01116602 -0.015954901
0.094145544 -0.012446446 -0.01334559
-0.082658306 -0.0097116586 -0.013840574
-0.074706815 -0.0086704474 -0.015278143
-0.065217435 -0.0063192453 -0.014949546
-0.055477303 -0.0039996966 -0.014842493
-0.045319378 -0.0018106208 -0.015060842
-0.038467806 -0.00030137043 -0.013954115
0.03786904 -0.00029680735 -0.01590598
0.045230694 -0.0019646001 -0.015091811
0.053904854 -0.0038327309 -0.014985754
0.06464415 -0.0061495071 -0.01520198
0.07529822 -0.0085971579 -0.014931675
0.082605541 -0.0097433571 -0.014378415
-0.033244632 0.0008910005 -0.014428789
-0.024136966 0.0042456174 -0.014839305
-0.01997979 0.0099127665 -0.012171343
0.0196144 0.0091422442 -0.013886398
0.024284519 0.0036407476 -0.015323074
0.032793138 0.00081013108 -0.014474208
-0.01744991 0.01545506 -0.014362112
0.016815083 0.015181464 -0.014666225
-0.012359919 0.022876754 -0.015814183
-0.0050638234 0.027821731 -0.01556382
0.0055412999 0.027136968 -0.014714627
0.011756753 0.022668852 -0.01568974
-0.10319382 -0.013049649 -0.003777951
-0.095047206 -0.010968074 -0.0049571991
-0.088809974 -0.010094065 -0.0075612818
0.08918108 -0.010086315 -0.0067636482
0.095036417 -0.010909155 -0.0053402265
0.10426139 -0.013427717 -0.00448662
-0.085121453 -0.0095843328 -0.0042925356
-0.075559787 -0.0084489435 -0.0052548633
-0.065111265 -0.0060935919 -0.0051341266
-0.054954197 -0.0040221983 -0.0049404004
-0.045034245 -0.0020532715 -0.0045982655
-0.037775937 -0.00046956632 -0.0050285324
0.037242226 -0.00053396425 -0.004395525
0.045712717 -0.0023310108 -0.0049510007
0.055322446 -0.004222889 -0.0050779027
0.064630777 -0.0060974667 -0.0046953433
0.074585564 -0.0081590861 -0.0050266162
0.084345132 -0.0095056482 -0.0040814034
-0.032637667 0.00057615165 -0.0048412904
-0.024664912 0.0029902994 -0.005390821
-0.019693697 0.0088235429 -0.0032040153
0.019333504 0.0083542429 -0.0042319857
0.024210285 0.0027897903 -0.0046461103
0.032572381 0.00043005389 -0.004690764
-0.016837142 0.014778339 -0.0042149946
0.016361998 0.014689639 -0.0055528819
-0.011898682 0.021873506 -0.0048683872
-0.0059707966 0.025874972 -0.0051870937
0.0045679561 0.025881946 -0.0047285799
0.01145922 0.02165827 -0.0054936977
-0.11410712 -0.013646521 0.0065594316
-0.10556086 -0.011753468 0.0047834953
-0.096031211 -0.010365979 0.0053324671
0.095711045 -0.010350189 0.0042627733
0.1047383 -0.011311223 0.0050049005
0.11410258 -0.013306001 0.0051037231
0.12087359 -0.014863565 0.0090390695
-0.090994284 -0.0098381219 0.0061318218
-0.085234344 -0.0092924461 0.0052831927
-0.075206637 -0.0080971383 0.0051077767
-0.06532684 -0.0062321317 0.0048717135
-0.054246776 -0.0041690264 0.0053828554
-0.045017548 -0.002481438 0.0054652113
-0.036402587 -0.00073796412 0.0037785857
0.036813471 -0.0010399655 0.0052170297
0.045537587 -0.0026698646 0.0052560358
0.054676384 -0.004339389 0.0048607821
0.064987093 -0.0062560565 0.0042123348
0.075329915 -0.0082169091 0.0052496805
0.084916823 -0.009302632 0.0041797278
0.091088153 -0.0098115476 0.006790584
-0.031090464 0.00024908094 0.0045594722
-0.023770418 0.002555612 0.0046334234
-0.019292979 0.0079965489 0.0058429069
0.019115327 0.0073063634 0.0055825938
0.024597075 0.0019088391 0.0040216818
0.031200161 0.00019037112 0.0032858802
-0.016135599 0.014500769 0.0045998474
0.015238377 0.014980586 0.0054121213
-0.011864793 0.020769481 0.0032823186
-0.0047763307 0.024602808 0.0041782786
0.0056170183 0.023862539 0.0044903685
0.010684317 0.021226184 0.0039474983
-0.124463 -0.014283677 0.016315645
-0.11488677 -0.012135312 0.014721029
-0.10523248 -0.010974275 0.014869479
-0.09783496 -0.01027354 0.014013626
0.098205417 -0.010247477 0.015202907
0.10443827 -0.010879872 0.014578762
0.11508044 -0.011981484 0.014980566
0.12429076 -0.013980832 0.014791671
0.13190082 -0.015712589 0.019267282
-0.09264601 -0.0097620832 0.014905042
-0.084684588 -0.0091980286 0.015127709
-0.075615697 -0.0081042796 0.015480516
-0.06546396 -0.0065436275 0.015000141
-0.054748319 -0.0045788065 0.014613658
-0.045115635 -0.0029200164 0.01536738
-0.034703948 -0.0011215353 0.014871444
-0.028876597 -0.00015313325 0.016864765
0.028923564 -0.00022191768 0.016598819
0.034786291 -0.0012112116 0.015116848
0.04482004 -0.0029632803 0.01595526
0.054534215 -0.0046347287 0.015107921
0.064394183 -0.0064292308 0.014933796
0.075387374 -0.0080434568 0.015993526
0.085441373 -0.009276852 0.015138881
0.09252511 -0.0097560203 0.014918186
-0.024485527 0.0011471057 0.014703461
-0.018791018 0.0073660035 0.014968064
0.018760022 0.0065881824 0.015689908
0.023793722 0.0012178601 0.014950923
-0.014149899 0.016071204 0.014431778
0.0142416 0.015197887 0.015140523
-0.010406416 0.020480726 0.013931155
-0.0050309962 0.02255691 0.015415815
0.0048676701 0.022405872 0.014761584
0.01009224 0.020732664 0.012068585
-0.14092082 -0.016101629 0.029574601
-0.13419487 -0.01471682 0.026098965
-0.12589993 -0.012683392 0.025428852
-0.11563458 -0.011668322 0.025869448
-0.10542775 -0.010743307 0.024603263
-0.096980438 -0.010114451 0.026467156
0.097631864 -0.010156175 0.024730949
0.10519069 -0.010691336 0.024927808
0.11540778 -0.011629595 0.024799207
0.12460682 -0.012473915 0.025425848
0.13487209 -0.014404401 0.025076561
0.14157665 -0.015879987 0.027888203
-0.093209572 -0.0098527744 0.024502151
-0.08479359 -0.009344928 0.025149914
-0.076142274 -0.0056362655 0.024910996
-0.06484881 -0.006773096 0.025332212
-0.055930689 -0.0051432592 0.024211317
-0.045219377 -0.0033199354 0.024996221
-0.034792818 -0.0015910025 0.024897465
-0.026890727 -0.0003560425 0.026672265
0.027246371 -0.00040022007 0.025628556
0.034654945 -0.0016322156 0.025593624
0.045640264 -0.0034601884 0.02567336
0.055184118 -0.0051114336 0.025476314
0.065085143 -0.0068549649 0.024964288
0.076400965 -0.0057810587 0.024776839
0.084580809 -0.0093633682 0.02564086
0.092309229 -0.0098294234 0.024916911
-0.077780813 0.00035515722 0.028971992
-0.022556333 0.00094583438 0.023236608
-0.018691072 0.0057594185 0.024209591
0.018298693 0.0061881896 0.025521109
0.022690037 0.00076442637 0.024520032
0.077345774 0.00031368496 0.028039578
-0.013910608 0.014541247 0.025063116
-0.0089561213 0.019208882 0.028034518
0.009029815 0.019525856 0.024783671
0.013578307 0.014915984 0.02487034
-0.0044940328 0.021138171 0.024367407
0.0036112417 0.021127503 0.024764346
-0.15127267 -0.016720627 0.039247543
-0.14486507 -0.015354152 0.03509606
-0.13536617 -0.013286497 0.034954149
-0.12503214 -0.012324216 0.03481118
-0.11521973 -0.011449323 0.034694098
-0.10508387 -0.010735536 0.035133317
-0.096415162 -0.010204984 0.035409138
0.09615957 -0.010202769 0.035016816
0.10538457 -0.010771967 0.035088491
0.11496473 -0.011401029 0.03529362
0.12444396 -0.012193051 0.035325326
0.1356328 -0.013216312 0.035360709
0.14480412 -0.014997621 0.034664311
0.15244868 -0.01639905 0.038238801
-0.091798112 -0.0099177323 0.035134122
-0.084064052 -0.009478624 0.03455805
-0.076099768 -0.005383899 0.034961164
-0.065048024 -0.0071741687 0.034832463
-0.05461764 -0.0053946464 0.03564046
-0.044335701 -0.0036563089 0.035229545
-0.034833394 -0.002071647 0.034799777
-0.025517859 -0.00062749261 0.035381485
0.025837004 -0.00067818549 0.035111897
0.035124779 -0.002164264 0.035242744
0.044969022 -0.0037888135 0.035220146
0.055116843 -0.0054488103 0.034234226
0.065211967 -0.0072405292 0.034912355
0.076102898 -0.0049325307 0.035234109
0.084512077 -0.009573427 0.035446849
0.091697395 -0.0099275243 0.034737971
-0.076402642 0.00047187129 0.034670159
-0.021219105 0.00059975515 0.032522555
-0.017628385 0.0057225344 0.035950743
0.017689358 0.0057330206 0.035381638
0.020984925 0.00053136004 0.034502137
0.076828726 0.00043768878 0.033983734
-0.013836072 0.013070439 0.034545757
-0.0059370026 0.018626258 0.03513414
0.0057592206 0.018675139 0.034830786
0.013208893 0.013764627 0.035379887
-0.0019348947 0.02036461 0.030452022
0.0010129855 0.020219464 0.031502999
-0.16155544 -0.017483238 0.048970994
-0.15495175 -0.016144814 0.04527982
-0.14497162 -0.01389141 0.045240734
-0.1353662 -0.013026335 0.045350388
-0.12539518 -0.012195471 0.04472208
-0.11500216 -0.011478573 0.044109315
-0.10482912 -0.010860795 0.044794813
-0.094838448 -0.010358223 0.045787353
-0.086569339 -0.010125976 0.047577422
0.079838321 -0.010030178 0.049647737
0.085103303 -0.010122389 0.047432609
0.09515918 -0.010416583 0.045591816
0.10504816 -0.010882353 0.044191238
0.11517169 -0.011508179 0.045173202
0.12519559 -0.012163827 0.04517512
0.13553014 -0.012981601 0.045067269
0.14497358 -0.013797371 0.044943389
0.1550701 -0.015498078 0.044583391
0.16247571 -0.017017592 0.047477584
-0.084601305 -0.009863832 0.043447703
-0.075953424 -0.0051181493 0.045023587
-0.065333426 -0.0076881847 0.045036271
-0.055014662 -0.0058837878 0.044327736
-0.044420026 -0.0041962713 0.044613536
-0.035243738 -0.0027492528 0.044575751
-0.025053354 -0.0012665157 0.044977471
0.019937046 -0.00036938157 0.049705196
0.02501313 -0.0012757811 0.045375865
0.034583841 -0.0026785722 0.044850718
0.045892674 -0.0044750068 0.045252472
0.055284929 -0.0059783109 0.045125108
0.065525882 -0.0077628321 0.045767508
0.076706931 -0.005200272 0.045031361
0.083764143 -0.0098936222 0.043504622
-0.075532213 0.00035770569 0.041333906
-0.016811045 0.0052945842 0.045511357
0.016867753 0.0056124288 0.044606224
0.075753391 0.00019683251 0.044602737
-0.012548545 0.012561538 0.045643292
-0.0047744852 0.016736558 0.045046944
0.0046324227 0.016955169 0.044384938
0.012619491 0.012814571 0.0451365
-0.17102747 -0.017642858 0.058169123
-0.1653467 -0.016529826 0.055302508
-0.15415032 -0.014468914 0.055195522
-0.14525543 -0.01373059 0.054791518
-0.13514547 -0.012917271 0.054883309
-0.12557191 -0.012270845 0.054180514
-0.11469743 -0.011620997 0.055103198
-0.10481305 -0.011154854 0.055402782
-0.095164567 -0.010780022 0.055027016
-0.084852919 -0.010374275 0.054199316
-0.079437003 -0.010303547 0.05619318
0.079443209 -0.010247336 0.05468569
0.084845662 -0.010470876 0.055103604
0.095378786 -0.010844067 0.05495977
0.10517076 -0.011184648 0.054370236
0.11552563 -0.011688907 0.055202246
0.12499762 -0.012258385 0.056084141
0.13473892 -0.012875052 0.054899842
0.14559141 -0.013683148 0.054871283
0.15574121 -0.014518973 0.055244595
0.16547979 -0.015916202 0.054558259
0.17278971 -0.017264144 0.057572562
-0.07563825 -0.0054503717 0.055161618
-0.06510821 -0.0082109561 0.055649422
-0.055341557 -0.0065358169 0.055076554
-0.04533736 -0.0050226036 0.055530552
-0.035470884 -0.0035631284 0.054987952
-0.025321696 -0.0021122766 0.055403326
-0.018863922 -0.0004393608 0.055336267
0.019392086 -0.00070823502 0.056806393
0.024819983 -0.0020066216 0.055427901
0.035378408 -0.0035756449 0.055553969
0.045079831 -0.0049758977 0.055547919
0.054681398 -0.0064233891 0.05506495
0.064744413 -0.0081137782 0.055280674
0.076152131 -0.0061492086 0.055123981
-0.016096758 0.0045301537 0.054852277
0.015794415 0.0058546178 0.054358184
-0.011675979 0.011671762 0.054576535
-0.0057084239 0.014550983 0.054441638
0.0048839906 0.014713996 0.054966178
0.011940584 0.011547675 0.055495117
-0.18142124 -0.017845564 0.068545461
-0.17522283 -0.016928367 0.065408394
-0.16529706 -0.015248538 0.064836428
-0.15470432 -0.014384977 0.065388635
-0.14472197 -0.013646035 0.06496691
-0.13482729 -0.012993631 0.065086685
-0.12469675 -0.012397503 0.064810105
-0.11544728 -0.011977904 0.064901933
-0.10542944 -0.011620726 0.065212496
-0.095140368 -0.011231637 0.06471251
-0.0845742 -0.010939766 0.065279096
-0.076365314 -0.010503395 0.066731542
0.077388577 -0.010504551 0.066639937
0.085351691 -0.011003155 0.064904854
0.094689846 -0.011328943 0.065764867
0.10527016 -0.011689124 0.065509021
0.11561498 -0.012051714 0.064984269
0.1261216 -0.012523785 0.065612838
0.13563451 -0.013041716 0.06503728
0.14493395 -0.013640767 0.065155059
0.15489534 -0.014346683 0.064797387
0.16499241 -0.015131648 0.064750873
0.1755721 -0.016790381 0.063845299
0.18360254 -0.017649196 0.067246035
-0.075663522 -0.00566001 0.064800382
-0.064702287 -0.0087373471 0.065526187
-0.054597992 -0.007059806 0.065301605
-0.045480564 -0.0056668976 0.065135561
-0.0345276 -0.0041480241 0.065091483
-0.024671281 -0.0027744204 0.06538786
-0.01839189 -0.0012127068 0.065387286
0.018838914 -0.0011105695 0.064552911
0.024880292 -0.0027202105 0.064957634
0.035617433 -0.0042441795 0.064879395
0.044812735 -0.0054771593 0.064141706
0.055672403 -0.0071478807 0.064504288
0.064952284 -0.0086815478 0.064420074
0.076456591 -0.0058692186 0.064666882
-0.014697695 0.0048089428 0.065194249
0.014550002 0.0057757734 0.065503217
-0.010865431 0.010514542 0.063612655
-0.0055748685 0.012335375 0.064926937
0.0049777436 0.012497235 0.06537997
0.011092632 0.010882299 0.063176319
0.19447477 -0.020099046 0.077959359
-0.19187909 -0.018523104 0.078324348
-0.18447913 -0.017407607 0.075063728
-0.17472686 -0.015881522 0.074787967
-0.16535896 -0.015162015 0.074941188
-0.1551954 -0.014434283 0.074489869
-0.14495608 -0.013764265 0.075385593
-0.13504782 -0.013214163 0.07482741
-0.12461294 -0.012788858 0.0754086
-0.11507634 -0.012367252 0.073876128
-0.10497569 -0.012047427 0.074720114
-0.095078491 -0.011711777 0.074015066
-0.084754795 -0.011486545 0.075126536
-0.072914526 -0.010486645 0.074514538
-0.068757251 -0.0100706 0.075697422
0.069049858 -0.010140137 0.07706438
0.075462706 -0.010587747 0.07483618
0.085182056 -0.011557358 0.075057313
0.094896533 -0.011842158 0.075284533
0.10529808 -0.012141421 0.075125843
0.11548687 -0.012483407 0.074725412
0.12486745 -0.012801933 0.073998414
0.13555403 -0.01327931 0.074727446
0.14515115 -0.013775215 0.074950114
0.15501173 -0.014394826 0.075262554
0.16487966 -0.01507601 0.075095616
0.17458859 -0.015778339 0.074639454
0.18550079 -0.01716952 0.074324973
0.19325206 -0.018324241 0.076686546
-0.075996973 -0.0056847888 0.075068034
-0.064951934 -0.0093356101 0.074480578
-0.054834567 -0.0077224569 0.075015746
-0.045195743 -0.0062820609 0.075098142
-0.035147391 -0.0048832181 0.074951507
-0.025018631 -0.0035164736 0.075226545
-0.018150158 -0.0020025026 0.074373968
0.018218605 -0.0017588987 0.075317577
0.025495665 -0.0034895579 0.074935324
0.034360312 -0.0047272136 0.07512486
0.045061406 -0.0062421327 0.075615019
0.054270156 -0.0075483858 0.07448636
0.064584054 -0.0092528649 0.075120829
0.077168167 -0.0053009791 0.074392036
-0.012826684 0.0055881613 0.074417211
-0.007286869 0.0095136492 0.076164417
0.0070107332 0.0095813153 0.07708513
0.01360255 0.005425822 0.074402809
-0.0029350005 0.010931617 0.074279986
0.0038016064 0.010796836 0.074481368
-0.20172773 -0.020514432 0.089013427
-0.19623272 -0.02013514 0.083468795
0.19843362 -0.020392099 0.081894644
0.20510598 -0.020351304 0.087132685
-0.20139243 -0.019014487 0.087501109
-0.19501324 -0.017775312 0.085440993
-0.1849128 -0.016580276 0.084875509
-0.17485051 -0.015846906 0.085550904
-0.16549031 -0.015218199 0.08520367
-0.15525241 -0.014537266 0.084746152
-0.14422262 -0.013986664 0.084871463
-0.13527724 -0.013623106 0.085082762
-0.12462611 -0.013202513 0.084575459
-0.11509154 -0.012900906 0.085337237
-0.10402411 -0.012513208 0.084080487
-0.094717078 -0.012359958 0.085526943
-0.084974028 -0.012059116 0.084587589
-0.075627014 -0.010940864 0.084712155
-0.067609303 -0.010459139 0.085413583
0.067586705 -0.010374379 0.085484907
0.074199162 -0.010910876 0.083966926
0.085335121 -0.012140839 0.084706418
0.094984353 -0.012367412 0.084373422
0.10485984 -0.012654574 0.084847674
0.11499636 -0.012949472 0.084912047
0.12470483 -0.013295119 0.085249476
0.13479622 -0.013668966 0.085033692
0.14456582 -0.014028092 0.084146947
0.15494411 -0.014539743 0.085012004
0.1646378 -0.01511646 0.084914707
0.174933 -0.015798798 0.084448561
0.184829 -0.016480295 0.085161991
0.19515689 -0.017417261 0.084497437
0.20359035 -0.018532472 0.086674556
-0.076068349 -0.0054394244 0.085097432
-0.062311545 -0.0095577445 0.085093312
-0.05443405 -0.0083191795 0.084854282
-0.045166943 -0.0069657434 0.084845617
-0.0341102 -0.0055133272 0.085766062
-0.025031431 -0.0041828817 0.084823772
-0.017314453 -0.0025330684 0.085486449
0.01745956 -0.0021104855 0.084136575
0.024731403 -0.0041145571 0.085714549
0.035282962 -0.0055027301 0.084502511
0.044912226 -0.0068348912 0.084491909
0.055317301 -0.0083573293 0.084550634
0.063239343 -0.009603072 0.084698893
0.077204816 -0.0052470081 0.085074782
-0.01282517 0.0032711672 0.084682114
-0.0048541478 0.008197098 0.08505173
0.0045196088 0.0084129944 0.084881008
0.013245496 0.0036828727 0.085157052
-0.21184604 -0.020721091 0.09799514
-0.20660558 -0.020788725 0.094920613
0.20772071 -0.020648297 0.093850985
0.21354012 -0.020701757 0.096335344
-0.21157466 -0.019287901 0.09793333
-0.2047177 -0.018458797 0.095539868
-0.19475192 -0.0172743 0.094864488
-0.18411636 -0.01650938 0.095222905
-0.1746722 -0.015898235 0.095580101
-0.16470622 -0.015284928 0.094431572
-0.15529607 -0.014847941 0.094774887
-0.1442972 -0.014380688 0.094552293
-0.13490087 -0.014037775 0.094767883
-0.12518725 -0.013721034 0.095151819
-0.11491372 -0.013446068 0.095404901
-0.10528462 -0.013199288 0.09479557
-0.095151827 -0.012985211 0.095287479
-0.085372552 -0.012723456 0.095255807
-0.076622985 -0.011472126 0.094417468
-0.065376312 -0.010735656 0.095466182
-0.059503149 -0.010031373 0.098950118
0.065074213 -0.010586187 0.095476359
0.075572334 -0.011393459 0.095713012
0.085451789 -0.012771604 0.095049672
0.095717102 -0.013060627 0.09513583
0.10529292 -0.013312901 0.095138125
0.11530063 -0.013535513 0.095071837
0.12493343 -0.013774353 0.09486825
0.13501368 -0.014078819 0.094185807
0.14500636 -0.01448046 0.094685726
0.15519255 -0.014896071 0.094792433
0.16458878 -0.015322443 0.094939597
0.1752717 -0.015901206 0.095299065
0.18504252 -0.016517479 0.095019966
0.1947832 -0.017172493 0.094472498
0.2050266 -0.018218027 0.09457881
0.21336406 -0.019030629 0.096883349
-0.075618252 -0.0062875682 0.095174462
-0.06120706 -0.009908908 0.093064658
-0.054681335 -0.0090573616 0.095046997
-0.044933695 -0.0076860059 0.095311232
-0.03532115 -0.0062984498 0.094840094
-0.024882874 -0.0048938347 0.094972283
-0.016309217 -0.0031364036 0.095595673
0.016652064 -0.0026637833 0.09536472
0.024751863 -0.0048467009 0.095625132
0.035390761 -0.0062039602 0.095006093
0.045333017 -0.0076594497 0.095534809
0.054967538 -0.0090532685 0.09570343
0.061379582 -0.0098416144 0.093095861
0.077219106 -0.0058863382 0.095021658
-0.01200706 0.0022332205 0.094216101
-0.0047751749 0.0059654191 0.095267475
0.0041913628 0.0064213364 0.094222777
0.01236717 0.0028815437 0.094433948
-0.22163628 -0.020841906 0.10703539
-0.21642543 -0.020887429 0.10453099
-0.20957805 -0.020939797 0.10236313
0.21622331 -0.02083043 0.10313202
0.22406672 -0.021127339 0.10612474
-0.22144002 -0.019616665 0.10827401
-0.21471749 -0.018899549 0.10572061
-0.20573691 -0.018140659 0.10412765
-0.19400235 -0.017219186 0.10487422
-0.18506782 -0.016640309 0.10483747
-0.17498274 -0.01611034 0.10544612
-0.16490047 -0.015638728 0.10455732
-0.15525252 -0.015237525 0.10458826
-0.14485405 -0.014865867 0.1050901
-0.13532226 -0.014513087 0.10454045
-0.12623051 -0.01430326 0.10491382
-0.11446404 -0.014099961 0.10536682
-0.10475241 -0.01381112 0.10462297
-0.095769279 -0.013664809 0.10608862
-0.085533157 -0.013334741 0.10472592
-0.074662112 -0.011698697 0.10562942
-0.064857014 -0.011250742 0.10480545
-0.057975154 -0.010310101 0.10649849
0.058573969 -0.010216633 0.10550378
0.065037705 -0.011146058 0.10470404
0.07432539 -0.011776168 0.10488111
0.085642956 -0.013401503 0.10450033
0.094246507 -0.013638001 0.10516202
0.10409465 -0.013904645 0.10523211
0.11509527 -0.014200886 0.10515404
0.12592149 -0.014511944 0.10618149
0.13520211 -0.014628909 0.10493939
0.14565998 -0.014948217 0.10475657
0.15451539 -0.015282454 0.10476162
0.16468526 -0.015670681 0.10426042
0.17515346 -0.016139096 0.10467923
0.18466146 -0.016590623 0.1046054
0.19442552 -0.017191049 0.10577286
0.20438243 -0.017840346 0.10573924
0.21544467 -0.018749928 0.10473379
0.22254647 -0.019487193 0.10571902
-0.075811103 -0.0061455746 0.10460166
-0.053712711 -0.0095326407 0.10393086
-0.045230605 -0.0083133364 0.10403872
-0.035663951 -0.0070023541 0.10497416
-0.024792839 -0.0056433864 0.10465531
-0.015638953 -0.0036769593 0.10547379
0.016098592 -0.0033012973 0.10518162
0.025148233 -0.0056274356 0.10484739
0.035208933 -0.0068000457 0.10504349
0.044871159 -0.0081985146 0.10518608
0.053573079 -0.0094519816 0.10484339
0.077609546 -0.0066185948 0.10460413
-0.011438166 0.00061788742 0.10391296
-0.0048128064 0.0037795727 0.10519203
0.0047914963 0.0040764832 0.10468002
0.011220998 0.0017483388 0.10590644
-0.23220734 -0.020805629 0.11833396
-0.22590087 -0.020993588 0.11350448
-0.21869545 -0.020777745 0.11120258
0.22783847 -0.021328622 0.11395457
0.23373097 -0.020855792 0.11511624
-0.22434793 -0.019477284 0.11526999
-0.21614432 -0.018756647 0.11448956
-0.20567586 -0.018043721 0.11564734
-0.19494414 -0.017366542 0.11509158
-0.18590041 -0.016911995 0.11486772
-0.17482769 -0.016475387 0.11577541
-0.16556077 -0.016073495 0.11482138
-0.15393716 -0.015634922 0.11479124
-0.14528352 -0.015363436 0.11478063
-0.13464507 -0.015199887 0.11548602
-0.1249394 -0.014971226 0.11494052
-0.11502028 -0.014723325 0.11506429
-0.10511071 -0.014480849 0.11490402
-0.095245063 -0.014383598 0.11537301
-0.084877335 -0.01423459 0.11457141
-0.075096257 -0.012225705 0.1156817
-0.065097407 -0.011863475 0.11465632
-0.056284402 -0.010637879 0.11541602
0.056414459 -0.01051468 0.11574595
0.064929828 -0.011722385 0.11486593
0.076254055 -0.011915137 0.1152874
0.085191287 -0.014419597 0.11487516
0.094124906 -0.014468183 0.11475896
0.1048844 -0.014544308 0.11430501
0.1148224 -0.014831421 0.11537311
0.12484116 -0.015085807 0.11526147
0.13420027 -0.015322114 0.11538134
0.14486203 -0.015483525 0.11475185
0.15465185 -0.015736861 0.11478753
0.16521907 -0.016114701 0.11452618
0.17559388 -0.016524231 0.11484186
0.18411872 -0.016895598 0.11525991
0.19598807 -0.017413177 0.11468532
0.20475884 -0.017912615 0.11463072
0.21454497 -0.01853515 0.11526697
0.22429737 -0.019240379 0.11447304
0.23255265 -0.019869609 0.11704665
-0.076078869 -0.0061682276 0.11544349
-0.051470768 -0.0098048663 0.11372214
-0.044666782 -0.0088484176 0.11500249
-0.03506422 -0.0075997212 0.11534469
-0.025077805 -0.0065152035 0.1150838
-0.014485771 -0.0042283568 0.11500408
-0.0098747937 -0.00090346782 0.11899553
0.014962784 -0.0037587679 0.11500601
0.024913533 -0.0064109704 0.11476961
0.034694515 -0.0073541114 0.11441524
0.044519484 -0.0087215696 0.11573131
0.051771216 -0.0097373025 0.11474846
0.077507637 -0.0061566425 0.11577968
-0.010282197 0.00046789335 0.11031608
-0.0046602353 0.0017548422 0.11512234
0.0047778795 0.001790614 0.11494081
0.010646758 0.00086375175 0.11278869
-0.24239595 -0.021680521 0.12809519
-0.23595019 -0.020679461 0.12444893
-0.22904603 -0.020861253 0.12098144
0.23781237 -0.020171922 0.1242224
0.24394405 -0.021284742 0.12587868
-0.23179373 -0.019831549 0.12559144
-0.22495666 -0.01934302 0.12488893
-0.21497998 -0.018694207 0.12461005
-0.20605014 -0.018166976 0.12490388
-0.19882184 -0.017778952 0.12414995
-0.18501729 -0.01716724 0.12338617
-0.17491841 -0.016833322 0.12472764
-0.16498777 -0.016504399 0.12508108
-0.15585345 -0.016288614 0.12552051
-0.14576273 -0.016081141 0.12499966
-0.13479279 -0.015851762 0.12501071
-0.12466263 -0.015649019 0.12532212
-0.11464752 -0.015454476 0.12449133
-0.1052862 -0.015526047 0.12553522
-0.094711728 -0.015406754 0.12488416
-0.084809907 -0.015283396 0.12440621
-0.075799525 -0.012962997 0.1251716
-0.064872645 -0.012459585 0.12485352
-0.054788832 -0.010903575 0.12450557
-0.049174577 -0.010074696 0.12696961
0.049721219 -0.010036427 0.1297698
0.055259362 -0.010803952 0.12539648
0.06579037 -0.012393684 0.12428783
0.074878916 -0.012806452 0.12485806
0.084021248 -0.014530561 0.12502192
0.094834909 -0.015547658 0.12468391
0.10506031 -0.015737154 0.12571721
0.1144973 -0.015670991 0.1247195
0.12505108 -0.015791811 0.12502341
0.13501287 -0.016002117 0.1255004
0.14602429 -0.016214449 0.12472655
0.15584987 -0.016387491 0.12462709
0.16517676 -0.016617779 0.12503776
0.17436475 -0.016919019 0.12542415
0.18514983 -0.017201986 0.12293321
0.19754031 -0.017781882 0.12497046
0.20399757 -0.018046355 0.12430448
0.21543826 -0.018662274 0.12472346
0.22467487 -0.019235941 0.1250336
0.23296249 -0.019780165 0.1250422
-0.076131165 -0.0052423691 0.1251401
-0.044376481 -0.0092206532 0.12470556
-0.035750657 -0.0076536676 0.1247919
-0.024698699 -0.0072768661 0.12482279
-0.013169947 -0.004526691 0.12548408
-0.0066059488 -0.00080080453 0.12618597
0.006015962 -0.00039190269 0.12671308
0.01421856 -0.0046813227 0.1253157
0.024836399 -0.0072455532 0.12479496
0.035201821 -0.0074321316 0.12578331
0.044694714 -0.0089738714 0.12515892
0.050241712 -0.0098847412 0.12330051
0.076899707 -0.0046919319 0.12453554
0.080090292 -0.0070022806 0.12761031
-0.076454937 0.00063434069 0.12805058
-0.011663186 0.002271954 0.1251563
-0.0060412139 0.0022429691 0.12414966
0.0036567568 0.00049940962 0.12264354
0.078164324 0.0007316093 0.12687917
-0.25124446 -0.02224171 0.13914301
-0.2451683 -0.021057734 0.13520998
-0.23700823 -0.020152574 0.13578708
0.23820263 -0.020111931 0.13554843
0.24500611 -0.020689728 0.13471046
0.25323659 -0.021813147 0.13598664
-0.2327745 -0.019878594 0.13401775
-0.22449498 -0.019383173 0.13491751
-0.21485204 -0.018833416 0.13539498
-0.20514007 -0.018402206 0.13566367
-0.19776858 -0.018198535 0.13786101
-0.18230654 -0.017400134 0.13190337
-0.17452691 -0.017352346 0.13552903
-0.16487667 -0.017152146 0.1353242
-0.15613852 -0.017003668 0.13522865
-0.14476882 -0.016783129 0.13522103
-0.13448924 -0.016753856 0.13587055
-0.12500013 -0.016683431 0.13539515
-0.11553072 -0.016676953 0.1355789
-0.10478383 -0.016590977 0.13542536
-0.095014907 -0.016444933 0.134854
-0.085757747 -0.016666982 0.13526368
-0.075461984 -0.01293176 0.13530508
-0.065387972 -0.013018442 0.13481775
-0.055700224 -0.011501543 0.13499731
-0.048599619 -0.010378555 0.13548063
0.049581334 -0.010285892 0.13396649
0.054867495 -0.011117498 0.13562104
0.065110758 -0.012785243 0.13501094
0.074048735 -0.013200683 0.13509853
0.083622277 -0.015247828 0.13455434
0.094869234 -0.016813967 0.13541353
0.10466774 -0.016689448 0.13474864
0.11556396 -0.016781546 0.13466795
0.12508462 -0.016841291 0.13468161
0.13459806 -0.016904246 0.13495408
0.14522381 -0.016963983 0.13505168
0.1544655 -0.017156908 0.13561936
0.16494256 -0.017272631 0.13449746
0.17406979 -0.017441817 0.13457087
0.18340844 -0.01771413 0.13554719
0.19683199 -0.018232914 0.13721496
0.2059831 -0.01848965 0.13542764
0.21488327 -0.018832706 0.13495947
0.22525275 -0.01936385 0.13455199
0.23275286 -0.019817937 0.13550542
-0.075943902 -0.0051366058 0.13503799
-0.043557595 -0.0085748564 0.13511966
-0.033827763 -0.006721857 0.1348324
-0.025377275 -0.0077279354 0.13468471
-0.013208382 -0.0054100757 0.13489671
-0.0060673631 -0.0022486991 0.13567097
0.005596539 -0.001606322 0.13466386
0.014290046 -0.0059574675 0.13484965
0.024392035 -0.0080526322 0.13564225
0.034421995 -0.0067178705 0.13542239
0.044053454 -0.008171441 0.13444476
0.075282633 -0.004507327 0.13482679
0.080414481 -0.0054758829 0.13515213
-0.076542921 0.0022883113 0.1359462
-0.010682738 0.0013887137 0.13212469
-0.0074754143 0.0013295643 0.13317837
0.078243554 0.0024073825 0.13509145
0.080228664 0.0016678674 0.13701755
-0.25373766 -0.022145933 0.14558911
-0.24499215 -0.020715123 0.14555334
-0.23601381 -0.020160001 0.1458381
0.1230682 -0.020129856 0.14936593
0.23699972 -0.020190481 0.1455439
0.24484786 -0.02057866 0.14569959
0.25509912 -0.021595756 0.1455804
0.26006785 -0.023413541 0.14978074
-0.23146936 -0.019913554 0.14448047
-0.22406504 -0.019526264 0.14536455
-0.21558866 -0.019130077 0.14491838
-0.20423223 -0.018739063 0.14480862
-0.19482492 -0.018471837 0.1454061
-0.18531086 -0.018189147 0.14465937
-0.17462502 -0.018049447 0.1452108
-0.16461633 -0.017850624 0.1444657
-0.15527397 -0.017817985 0.14492165
-0.14531155 -0.01779581 0.1449208
-0.13499939 -0.017710082 0.14427447
-0.12491955 -0.017746152 0.14502895
-0.11489735 -0.01792537 0.14584011
-0.10491836 -0.01774657 0.14328641
-0.095464312 -0.017615939 0.14170887
-0.089631945 -0.017513184 0.1401514
-0.075544633 -0.013434276 0.14463708
-0.065246165 -0.013382094 0.14478016
-0.053964768 -0.011777138 0.14496215
-0.048527986 -0.010608079 0.14455603
0.049938641 -0.01021624 0.14556304
0.054827146 -0.011705991 0.14571354
0.064676151 -0.013163464 0.14539246
0.073554404 -0.013401205 0.14429401
0.080194935 -0.012911006 0.14432433
0.097801678 -0.017882677 0.1407977
0.10653159 -0.017890157 0.14274764
0.11533909 -0.018075479 0.14487669
0.12526463 -0.018066566 0.14532144
0.13478369 -0.018114818 0.14574561
0.14439823 -0.01808808 0.14501701
0.15507975 -0.018043464 0.1443872
0.16509011 -0.018158514 0.14500311
0.17513289 -0.018221153 0.1446722
0.18489672 -0.018415047 0.14503494
0.19628468 -0.018712249 0.14616168
0.20503408 -0.018878793 0.14488041
0.21461968 -0.019171936 0.14457664
0.22529078 -0.019579347 0.14488643
0.23191738 -0.019892361 0.14389282
-0.076362811 -0.0055094999 0.14494587
-0.043434273 -0.0079898303 0.1455047
-0.034682199 -0.0062865554 0.1447828
-0.025152193 -0.0078691067 0.14459394
-0.014617397 -0.0081434306 0.14499117
-0.006165857 -0.0040433076 0.14496854
0.0051333285 -0.003214217 0.14482133
0.014941224 -0.007469954 0.14518207
0.025156217 -0.008302114 0.14521013
0.034649368 -0.006281564 0.14461465
0.044601437 -0.0077056414 0.14540577
0.074955463 -0.0052298428 0.14422856
0.080746651 -0.0046235737 0.14498004
-0.077109545 0.0037353113 0.14531291
0.077850014 0.0047908989 0.14464794
0.080740564 0.0040242639 0.1467834
-0.25437045 -0.02173925 0.15490685
-0.24538709 -0.020783158 0.15518415
-0.23515525 -0.020319644 0.15438223
-0.22703856 -0.020066122 0.15819232
-0.14257708 -0.020631615 0.15891393
-0.134707 -0.020349592 0.1561836
-0.12888591 -0.020433681 0.15416974
0.1298244 -0.02017281 0.15157574
0.13628007 -0.020351885 0.15368988
0.14512713 -0.020964837 0.15659408
0.15180011 -0.020849034 0.15877958
0.21574581 -0.020074589 0.15959911
0.22529805 -0.020145604 0.1576165
0.2346839 -0.020337472 0.15545528
0.24550211 -0.020807965 0.15502311
0.25486648 -0.021431239 0.15510058
0.26045182 -0.02280158 0.15571301
-0.23043406 -0.019975513 0.15062645
-0.22470504 -0.019789483 0.15338473
-0.21406129 -0.019539528 0.15486312
-0.20479718 -0.019280583 0.15438673
-0.19529253 -0.019196542 0.15536736
-0.185229 -0.01899064 0.15453501
-0.1749105 -0.019025501 0.15546076
-0.16456707 -0.018980514 0.15508974
-0.15539151 -0.019021865 0.1554953
-0.14588955 -0.018993074 0.155393
-0.13418454 -0.018783292 0.15337078
-0.12566802 -0.018589864 0.15179616
-0.11305912 -0.018576408 0.15175775
-0.075948752 -0.013258727 0.15458722
-0.064665951 -0.013807633 0.1553022
-0.054882057 -0.01248951 0.15509096
-0.049116734 -0.010399888 0.15413651
-0.01850725 -0.010046128 0.15931904
0.021166375 -0.010046923 0.15883549
0.055181954 -0.011964018 0.15548989
0.065118998 -0.01366623 0.15474445
0.073166363 -0.012862767 0.15517905
0.080259018 -0.013563053 0.15442491
0.11366741 -0.018978002 0.15116376
0.12849422 -0.018968487 0.15078478
0.13445169 -0.018908983 0.15209045
0.14486969 -0.019061338 0.15356699
0.15520252 -0.019289276 0.1551391
0.16468783 -0.019306514 0.15509832
0.17501326 -0.019241881 0.15437029
0.18553767 -0.019383846 0.15538312
0.19498719 -0.019459311 0.15532647
0.20546006 -0.019568697 0.15493715
0.21444091 -0.019683816 0.15441988
0.22418669 -0.019834654 0.15235151
-0.076178588 -0.0052928273 0.15473117
-0.044358682 -0.008013132 0.15511085
-0.035274692 -0.0059862505 0.15479991
-0.025390543 -0.0076522627 0.15464029
-0.015159995 -0.0092006791 0.15401621
-0.0051455381 -0.0058884844 0.15458976
0.0053362823 -0.0048779249 0.15513393
0.015335709 -0.0088099651 0.15526661
0.025992217 -0.008121633 0.15489027
0.035149157 -0.0059431712 0.15505579
0.045394011 -0.0075879497 0.15533483
0.050411429 -0.0096883299 0.15704952
0.074972577 -0.0054246387 0.15525986
0.080986984 -0.0045411387 0.15469946
-0.077011168 0.0050446177 0.15529293
0.077461898 0.0057416917 0.15489325
0.081122361 0.005778892 0.15458614
-0.078220412 0.010593154 0.15653257
0.07915099 0.011238616 0.15776315
0.080710717 0.011010553 0.15727265
-0.25500444 -0.02188959 0.16479787
-0.24543163 -0.021096751 0.16438186
-0.23511663 -0.020663757 0.16471098
-0.22536911 -0.020419449 0.16510282
-0.21505433 -0.020291369 0.1656481
-0.20457739 -0.021392243 0.16663954
-0.1960568 -0.020892447 0.1670173
-0.18477142 -0.020335216 0.16687492
-0.1744104 -0.020529514 0.16722398
-0.16534668 -0.02051319 0.16588296
-0.15460739 -0.020653212 0.16309708
-0.14757636 -0.020975888 0.16065143
0.15764175 -0.020599347 0.16069996
0.16690494 -0.020730056 0.16381499
0.17406936 -0.020803561 0.16486907
0.18518582 -0.020503454 0.16491497
0.19494477 -0.020509357 0.16507491
0.20388438 -0.021624703 0.16479629
0.21574822 -0.020542523 0.16495025
0.22446294 -0.020598751 0.16465341
0.23517844 -0.020846844 0.16537514
0.24485824 -0.021184005 0.16530734
0.25462455 -0.02169401 0.16556236
0.26153529 -0.022801576 0.16694964
-0.21445145 -0.019895144 0.16088121
-0.20526259 -0.019855024 0.16156711
-0.19522963 -0.019783579 0.16191088
-0.1852352 -0.01977979 0.16207108
-0.17469826 -0.019746017 0.16171843
-0.16429216 -0.019815503 0.1623031
-0.15672842 -0.019782139 0.16217567
-0.14893709 -0.019673953 0.16097069
-0.075299323 -0.013236587 0.16510017
-0.064368665 -0.014279363 0.16506857
-0.055003852 -0.012689493 0.16463229
-0.049732085 -0.01013735 0.16632339
-0.015647287 -0.010322583 0.16607073
0.016813867 -0.010403145 0.16723514
0.020716019 -0.010318078 0.16426539
0.056532547 -0.012508366 0.1644634
0.065722398 -0.014233222 0.16473278
0.072970599 -0.013377882 0.16531746
0.080393203 -0.013960622 0.16492938
0.15896618 -0.019867159 0.16025774
0.16651623 -0.01996078 0.16071057
0.1734837 -0.019968044 0.16064322
0.18558872 -0.019969104 0.16054033
0.19312443 -0.019944496 0.16020596
0.2028686 -0.019979011 0.16001873
-0.075688131 -0.0050017606 0.16527784
-0.044723257 -0.0077979458 0.16482534
-0.03538648 -0.0057514911 0.16468616
-0.025068842 -0.0075374362 0.1656165
-0.014975856 -0.0097575756 0.16362758
-0.0058156545 -0.0072269137 0.1653607
0.0048990757 -0.0063724946 0.16498834
0.012172917 -0.0091388943 0.16453244
0.025874546 -0.0080891158 0.16526192
0.034439996 -0.0057850662 0.16449399
0.045192618 -0.0071460586 0.16478051
0.051047742 -0.0095569082 0.16661267
0.074973576 -0.005953318 0.16498961
0.08105351 -0.0057240571 0.1658961
-0.076975852 0.0045349365 0.1647259
0.077015743 0.004788144 0.16539258
0.081613667 0.0054695341 0.16462612
-0.077990837 0.012812416 0.16602257
0.07880298 0.012352385 0.16617157
0.081371605 0.01382676 0.16669236
-0.26030806 -0.023084136 0.17467007
-0.25660303 -0.022337003 0.17524619
-0.24543425 -0.021511545 0.17430241
-0.23495631 -0.021234952 0.17477082
-0.22548303 -0.02117338 0.17497359
-0.21514286 -0.021234129 0.17522165
-0.20405966 -0.022894766 0.17538275
-0.1955604 -0.022018945 0.1744666
-0.18532696 -0.02117531 0.17260762
-0.17743067 -0.021257782 0.17076878
-0.16707957 -0.021076493 0.17359419
0.16907935 -0.021218693 0.17276894
0.17018467 -0.02176219 0.17056009
0.18741198 -0.021553915 0.17056715
0.19565786 -0.021631684 0.1717103
0.20410684 -0.023344295 0.17401601
0.21427737 -0.021828899 0.17569655
0.22575206 -0.021492383 0.1742212
0.23514977 -0.021535683 0.17469275
0.24486835 -0.021720851 0.1753931
0.25484902 -0.022031026 0.1751869
0.26187071 -0.023076458 0.17517298
-0.074571818 -0.013236613 0.17507559
-0.064235598 -0.014818888 0.17490545
-0.054732826 -0.012713763 0.17482826
-0.020246383 -0.010090009 0.17902464
-0.015404033 -0.010937572 0.17513759
-0.0090617305 -0.010415325 0.17803214
0.015949726 -0.010920254 0.17470039
0.021611961 -0.010474914 0.17534164
0.055794522 -0.012214903 0.17492194
0.06503275 -0.014784331 0.17546475
0.073142663 -0.013870469 0.17545851
0.080527559 -0.013760322 0.17535268
-0.075884447 -0.0046769488 0.17471196
-0.05013556 -0.0097894557 0.17954853
-0.044860478 -0.0075946334 0.17420729
-0.034987587 -0.0056828335 0.17516437
-0.024939397 -0.0076981806 0.17502046
-0.0048765782 -0.0083777839 0.17491768
0.0047597671 -0.0080470098 0.17541379
0.011054986 -0.0097919432 0.17342226
0.025968337 -0.0082860189 0.17496942
0.035633978 -0.0057281861 0.17488843
0.045270257 -0.0069069685 0.17533347
0.051597755 -0.0094332928 0.17482594
0.075282671 -0.0052423053 0.17542735
0.081227168 -0.0051218113 0.17474537
-0.077223457 0.0051858518 0.17507188
0.077017687 0.0046529081 0.17555796
0.08195141 0.0058686743 0.17542602
-0.080046892 0.017228488 0.1782088
-0.077758402 0.014762882 0.17544007
0.078808218 0.014475935 0.17532627
0.082107812 0.014630775 0.17437139
-0.080195531 0.02035135 0.17913893
-0.079047449 0.02211437 0.17748421
0.079907976 0.02083643 0.1776419
0.081690267 0.021705607 0.17595373
-0.26015222 -0.023546748 0.18184395
-0.25548425 -0.022644965 0.18552692
-0.24463764 -0.022214858 0.18589522
-0.23529983 -0.022150731 0.1848958
-0.22562706 -0.022302572 0.18428536
-0.21592343 -0.022418505 0.18305019
-0.20592642 -0.022394244 0.18109548
-0.19939484 -0.02214806 0.18257545
0.014957601 -0.026902763 0.1895574
0.20185862 -0.022505216 0.1803717
0.21767348 -0.022749066 0.18091483
0.22578558 -0.022924101 0.18258213
0.23571506 -0.022821462 0.18490064
0.24454626 -0.02258209 0.18524885
0.25501296 -0.02252786 0.18433611
0.26115814 -0.023258783 0.18389006
-0.074543804 -0.013878472 0.18507086
-0.064425886 -0.015503411 0.18508705
-0.05490005 -0.012840482 0.18463023
-0.020536106 -0.010385917 0.18591753
-0.015750866 -0.011839435 0.18494409
-0.0068482542 -0.010621077 0.18611273
0.0085498439 -0.010495096 0.18749255
0.015327811 -0.011869689 0.18484734
0.021468304 -0.011601991 0.18513176
0.056442305 -0.012031416 0.18533358
0.065247364 -0.015486737 0.18521379
0.073532112 -0.013878557 0.18515216
0.08055836 -0.014155057 0.18492997
-0.075691804 -0.0046250611 0.18517537
-0.05052216 -0.0097918827 0.18464221
-0.044771314 -0.0074168905 0.18495174
-0.034239288 -0.0057714721 0.18541162
-0.024856387 -0.0081248619 0.18495761
-0.0023388125 -0.0094206287 0.18510853
0.0045404914 -0.0092934864 0.18409473
0.026550587 -0.008482106 0.18547016
0.03588229 -0.0058450107 0.18519391
0.045173101 -0.0067627081 0.18495104
0.051683307 -0.0090190154 0.185256
0.075515911 -0.0052482635 0.18486057
0.081359267 -0.0049111452 0.18589666
-0.077337407 0.0048317821 0.18539868
0.077161036 0.0047561345 0.18443455
0.082175948 0.0056461152 0.18468724
-0.080216795 0.01606865 0.18532397
-0.076755516 0.014992508 0.18457183
0.078708425 0.015045321 0.18473643
0.082838923 0.015843611 0.18536828
-0.080507614 0.02358415 0.18558036
-0.077949867 0.024729269 0.18468918
0.079758719 0.022064207 0.18514544
0.082006864 0.025526902 0.18519627
-0.080489665 0.031991169 0.1890493
-0.079318643 0.031517595 0.18829651
0.08239118 0.031238923 0.18774411
-0.25546771 -0.023184003 0.19515756
-0.24460807 -0.023017721 0.19509873
-0.23531748 -0.023247326 0.19483563
-0.22983943 -0.023965744 0.19511524
0.014949406 -0.026933881 0.19552231
0.23649241 -0.023706453 0.19439664
0.24501593 -0.023454413 0.19530351
0.25531095 -0.023153501 0.19500755
0.26126003 -0.023946581 0.19428332
-0.075049125 -0.013922501 0.19508545
-0.065150253 -0.016063318 0.19433725
-0.054999106 -0.012714775 0.19501384
-0.021333411 -0.010646929 0.19558254
-0.01530164 -0.012777868 0.19453646
-0.0055840341 -0.011440105 0.19465284
0.0050837509 -0.010810304 0.19465736
0.01471867 -0.01263079 0.19367759
