# .PCD v0.7 - Point Cloud Data file format
VERSION 0.7
FIELDS x y z
SIZE 4 4 4
TYPE F F F
COUNT 1 1 1
WIDTH 827
HEIGHT 1
VIEWPOINT 0 0 0 1 0 0 0
POINTS 827
DATA ascii
-89.54699112836775 -69.29737687272876 -1.2244549514056366
-89.08454224848674 -69.15091483679751 -1.2287069307006446
-80.84260586184044 -68.6338746624962 -1.2806634675262356
-80.22604166716164 -68.32967482524087 -1.2820294839753534
-79.1507467985976 -68.36757560465918 -1.2864937686792377
-78.33468154514186 -68.28792560718428 -1.2908167299458204
-77.26171166005354 -68.32419556284619 -1.294633935986848
-76.06650575822354 -68.11189677976864 -1.2989775463195714
-75.27691846450124 -68.1434703844516 -1.3044936493634929
-74.34524147583465 -68.07281562824457 -1.3101455382595453
-73.53122398443185 -67.99704014116752 -1.3150575072284494
-72.70875041369203 -67.8788475641353 -1.3198375397584088
-71.79845679624445 -67.78067791026135 -1.3252844543694613
-70.97127360062426 -67.61747933947413 -1.3296881179745443
-70.10650929021863 -67.72134563127558 -1.3356116443168353
-69.30874334404346 -67.63996868864588 -1.3402128052018438
-68.44883090104356 -67.40973210809068 -1.3444124907883508
-67.18646606016438 -67.03669761322695 -1.3502312459992811
-66.43666604287625 -67.26165903556578 -1.3556887859110385
-65.65226721791998 -67.27282272792334 -1.360313214599204
-64.71571312146217 -67.26454586161196 -1.3655417601709212
-63.98710978184711 -67.05429522356118 -1.368667179639118
-92.13260014537556 -69.38164732464901 -1.2183513155613515
-88.91789836507914 -69.15201717515416 -1.2327744960631715
-88.35902988079734 -69.1039822230218 -1.2392832428740697
-87.51088838027336 -69.07296407226923 -1.2430524779109253
-86.79293240480952 -68.91905864750304 -1.2509151257213893
-86.5974456377023 -68.70312722772981 -1.2564760997081128
-85.7326244745465 -68.77094788365997 -1.2634937963814261
-84.39319486174944 -68.71833588142992 -1.264881546460161
-83.22437237472796 -68.5314385670285 -1.2682899991201855
-82.56666314472129 -68.47542930620929 -1.2745588940824346
-81.5847979170403 -68.57621329928762 -1.2790334315313958
-79.43384154439053 -68.23180352299123 -1.2976883703891173
-78.85581423281548 -68.14855104197639 -1.2995246691402917
-93.17319547034855 -69.15930546844443 -1.222804316807631
-87.60583823640111 -69.28338388350178 -1.2583476722022227
-87.29128570864106 -69.08596500437493 -1.2594646253550579
-80.12464671499325 -68.09277834158146 -1.303951510073413
-79.79092166190753 -67.7687261683005 -1.3035300523465587
-104.48342649339779 -69.21192832427022 -1.108654067063481
-103.94143067654231 -69.1346819664095 -1.1142315186265028
-103.24873624875146 -69.01215892765194 -1.1191602193632204
-72.76053276752609 -65.63546966283951 -1.3045560462673111
-63.24211165019948 -65.37640032952636 -1.365734442192365
-62.51971179562115 -65.29376873480567 -1.3694755536446113
-61.51677919080974 -65.24415867458589 -1.3741614450123676
-60.7067167006468 -64.534649705697 -1.3734318284742508
-102.94343094474875 -69.19715482328003 -1.1223613791716613
-102.34084815258369 -68.99021932255523 -1.126060677923074
-101.69313750236103 -68.99332045492112 -1.1309720179383982
-100.7898804224043 -68.91879051814668 -1.1372166321600328
-100.01091959680262 -68.74458329691893 -1.1420147866525956
-99.26985412302678 -68.79015564576282 -1.1475334281391294
-98.36675490649057 -68.61488994332917 -1.1529307035791223
-97.57227088830763 -68.65722107430089 -1.1586474524061636
-96.77128860699912 -68.50922408657316 -1.1633161147088928
-95.93164212700509 -68.43153191220193 -1.168522761421627
-95.09265629832237 -68.45646295305298 -1.1742702577380264
-94.20990026104761 -68.25441133520486 -1.1791297325854562
-93.31046220499505 -68.04500032902914 -1.1838312101868564
-92.5760173344392 -68.38481737696395 -1.1903984134748526
-91.84682485826261 -68.56890368842754 -1.1961833792041638
-91.41949148355323 -68.77819595671059 -1.2000520400608887
-90.63879119358421 -67.8889749997077 -1.2080698831169903
-89.7700444182137 -67.78471160639035 -1.2134026342934627
-89.03020804350318 -67.6501220328134 -1.2203175250213063
-88.74447600758845 -67.66221855804667 -1.2241676731561932
-80.43545535924869 -66.7257426913082 -1.275256201090361
-79.81222670175485 -66.67856563539948 -1.2766852727618716
-78.78954117909653 -66.66986419140663 -1.2809509774920071
-78.04247305361753 -66.78361172550721 -1.2859445043326692
-77.54709363236272 -66.72176826034737 -1.2897334129287612
-75.49216139701434 -67.21596314536808 -1.2971362973296314
-74.68768120703844 -66.82778417236062 -1.3007308253330232
-73.84623263769022 -66.41144831051088 -1.3041539149161496
-72.99303242187283 -66.26099705022588 -1.3091152399109864
-72.16704772640314 -66.11769132678101 -1.3138347022840657
-71.38171024811723 -66.16218675806067 -1.3192173797038063
-70.50528080399583 -66.18195855339317 -1.3251204532062528
-69.62216846249939 -66.00403491127742 -1.3299557605114285
-68.77507118802937 -65.98081508056174 -1.3353053880324952
-67.91041735011711 -65.84721898256575 -1.3400801338828179
-66.86872059357694 -65.57657585483065 -1.3452569228544193
-66.14842783930482 -65.72060699387102 -1.3503221941069108
-65.30742735119058 -65.69890737002326 -1.355258764613898
-64.33845471517367 -65.56917940067471 -1.3603822480735421
-63.768017270939254 -65.6840357466657 -1.364098807012285
-91.7865842873507 -67.76154847275437 -1.2130508877436827
-88.64173162938788 -67.43928308117759 -1.2281961999962916
-88.15948532292204 -67.4718191222124 -1.2343019827260953
-87.14219131705254 -67.44519792644633 -1.238249433512167
-86.20012074261685 -67.30077520923476 -1.243352687429679
-86.04932112319622 -67.19567530718598 -1.2506425326741744
-85.21234682674738 -67.12314923273242 -1.2571827594122205
-83.78592945316507 -67.032122959822 -1.2591329222344503
-82.80656750249828 -66.95667215602984 -1.263857966452544
-82.30101408016205 -66.95934623579703 -1.2705108610570663
-81.23713095819576 -66.76682403855173 -1.274312545977601
-79.04889489828528 -66.69777911020276 -1.292436802872511
-78.61727442340778 -66.5228910687163 -1.2955137008856599
-93.1077671387635 -67.6101591491322 -1.2189664978566015
-80.1669307187517 -66.50129586068334 -1.3007683015871487
-79.74591046837533 -66.13609005092074 -1.3006977193314828
-104.28228629196163 -67.68224696247324 -1.1040760399465177
-103.6445096701668 -67.55670626212377 -1.109292180706013
-102.86941200790555 -67.60385632100224 -1.115338466404326
-102.09067023148592 -66.91220626567238 -1.117891474474316
-94.8443190413185 -66.14173015407341 -1.1611504503516366
-94.30833678989065 -66.52590146090061 -1.1667771840873962
-93.8714955359885 -66.81219799244494 -1.1707309938315795
-72.10947372500408 -65.22035516486633 -1.3069709018749252
-71.46832186623168 -64.82472150634787 -1.3091802617106423
-70.5389353540475 -64.28525008149103 -1.3119469242534485
-69.91753953837338 -63.87311206091671 -1.3144415821722408
-64.58746511663932 -63.232307116018426 -1.347903336130885
-63.835760536495684 -63.484271397397634 -1.3537951368802443
-63.08747834315585 -63.76813367862232 -1.3596023938523703
-62.122122560814326 -63.759780783898705 -1.3651192861186214
-61.241769312675025 -63.680650578201664 -1.3695235820227614
-60.560606981079125 -63.55092640127079 -1.3711747124802478
-102.64250502491201 -68.18032383879586 -1.119867032052262
-102.09151819933761 -67.68072880118102 -1.1216404263044295
-101.17623433369033 -67.35239101835553 -1.1266420815086946
-100.44403951056128 -67.35575855169084 -1.1318823070438495
-99.61890499065916 -67.11978505441384 -1.136416292189218
-98.82366263354434 -67.17594475820911 -1.1422090298184464
-97.91517627105215 -66.94389209143112 -1.147110369556838
-97.05877176081867 -66.9237897512405 -1.152711635709781
-96.26341220115638 -66.78614377634983 -1.1572660198102043
-95.4670062875822 -66.72863101383967 -1.1622867547961877
-94.57310079770393 -66.96738859617021 -1.1695163964754776
-93.93174494215536 -67.15763955370116 -1.1748555034908503
-92.86828638377678 -67.0655936827785 -1.1814531959252126
-90.36547260356107 -66.2560702517687 -1.2031412154643075
-89.3118101473801 -66.05651261288362 -1.2082870382613173
-88.67234218272066 -66.00117870097631 -1.2144118638447963
-88.50358048071317 -66.09112269960723 -1.2193455576949828
-85.79020336372803 -64.99781115309017 -1.2330204389409687
-82.45021591487748 -64.76821194065126 -1.253926150934437
-79.4209286757112 -65.07283837434802 -1.2719325221986564
-78.37131176347305 -65.13571396499744 -1.2762789369449394
-77.78649700261592 -64.99322912006656 -1.2808238291041734
-77.11544305832382 -65.0691848721285 -1.2843951126599387
-73.65409336416347 -65.40134241962896 -1.299591037019814
-72.41383087512939 -65.34799737181731 -1.3075072586354177
-71.87454798891824 -65.08652621673286 -1.3100177149206964
-70.92314405171348 -64.76446852991438 -1.314620514021243
-69.96537423467697 -64.42817023867731 -1.3190794325882509
-69.16200192686843 -64.36116568556054 -1.3240292805382485
-68.32171804904135 -64.39963294147209 -1.3298086482107723
-67.37819526426185 -64.15279725592208 -1.3346997932733782
-66.57037889057449 -64.08928842379095 -1.339597881406793
-65.68242389789998 -64.07280189813851 -1.3451672333328766
-64.92415562900626 -64.08901164319902 -1.3500174370528941
-64.14796995772821 -64.35439050265725 -1.355995824791799
-91.47464212912877 -66.15070320758176 -1.2085378037074108
-88.3965667338838 -65.86901269219574 -1.223024363971002
-87.9170109160666 -65.82807454983573 -1.2293300727765206
-86.85731776675091 -65.7947674908198 -1.2333892846921626
-85.79996030394268 -65.83381233916826 -1.2379374300179875
-85.38882123258534 -65.62688257905813 -1.2451989623154778
-84.62287927728377 -65.4452682718036 -1.2511041924875044
-83.23233755238205 -65.38681306775395 -1.2534921144117515
-82.43802354564109 -65.35840099282689 -1.259710260042892
-81.95724450064775 -65.23705161139314 -1.265928458237708
-80.85533693303772 -65.1286667684396 -1.2699770686585388
-80.08517006444387 -64.82998472131584 -1.2702840278181649
-78.6530248053862 -64.88790617657887 -1.2869418545189848
-78.28433717498406 -64.92383624383493 -1.2909677664082004
-92.94672631720923 -65.95654649093996 -1.2150801944315874
-79.98894038730447 -64.81166001251661 -1.2962480254924655
-79.69464851169025 -64.83319769842117 -1.2983307345608597
-93.77007728509518 -65.70419577876649 -1.2177381154223834
-80.50569519013519 -64.26952060585396 -1.2995866609433895
-80.35876928242354 -64.34032237497313 -1.3004780339482973
-103.98560530004598 -66.06425923883913 -1.0988278266585036
-103.29864290184452 -66.04970805480973 -1.1045739278403688
-102.47462132158388 -65.91076820768266 -1.1100918335144185
-101.67058683078511 -65.76792563120189 -1.1151512279980809
-100.79748396805289 -65.59668209114804 -1.1203500147677878
-99.7269341850332 -65.36378250824697 -1.1245543641019566
-99.06225943456475 -65.23013068727938 -1.1291605167407277
-98.18893809470755 -65.15976905756385 -1.1355005489738357
-97.27416834453015 -65.02377236666412 -1.1405928191351713
-96.55440493303311 -65.17325135236283 -1.1459791734458311
-95.71957789205732 -65.5486220853013 -1.1528318941565872
-95.16199650226483 -65.8989127448763 -1.157458883129943
-69.39369872737228 -63.509589204760815 -1.3167259747977957
-68.48834593346373 -62.927193856572856 -1.3199450635355767
-67.83707659062844 -62.69903716673676 -1.3231135056429424
-66.93643992120356 -62.601763863577446 -1.3290936012853316
-66.10478812826116 -62.499542762625026 -1.3340963120102367
-65.20462196096119 -62.48736426660834 -1.3381074682880043
-64.3446207730597 -62.35832238907044 -1.3449728493188338
-63.60960954723612 -62.3397842113258 -1.3496184420021478
-62.64504225842813 -62.14038303376881 -1.3546763579763361
-61.78216071725423 -62.079655416451914 -1.3595163291849564
-60.877453170648465 -61.96704607012403 -1.3641230937790638
-60.09445619008876 -61.69698169259068 -1.3662720711889988
-100.95980167894182 -66.37074661160366 -1.1232613193000094
-100.16516797159774 -66.18609982272125 -1.1277433686770195
-99.31483858931632 -66.0507412234834 -1.1328536467746266
-98.46459055796183 -65.94654160753912 -1.1379857191214942
-97.58966396154933 -65.92203245644244 -1.1436710069461966
-96.68037768923168 -65.7456794813009 -1.1487596583472872
-96.04939180030725 -65.70734331477027 -1.1527859638118125
-95.44534787929649 -65.84342689214098 -1.1575076011378207
-89.96319808489451 -64.52413158060489 -1.1983800561951905
-88.89634745000707 -64.4551129922413 -1.2033593059614291
-88.33716823076576 -64.4371549698923 -1.2095658446099808
-88.18553512922375 -64.09158886848245 -1.2132795553566325
-85.28526962219344 -63.86953441428288 -1.231031658949578
-82.4895013071384 -63.42628974679255 -1.2473217331439697
-82.2700838162496 -63.8827553068767 -1.2508594390805763
-78.9328137391833 -63.5942150748268 -1.2678884289387793
-77.90946813396478 -63.49647395881529 -1.2713358979148484
-77.39438072331892 -63.335020926792296 -1.2754277641747074
-76.69936710457796 -63.34705254795712 -1.2790752874509206
-69.39700728276415 -63.564226914261326 -1.3181446723569714
-68.73039229933455 -63.432026735615715 -1.3217924677443116
-68.14226020327334 -63.388893436700506 -1.325450377227475
-67.12157939003203 -63.31151477706594 -1.3318067277099461
-66.49865848376385 -63.307476587729795 -1.3359129745981408
-65.67589627625397 -63.2626898184706 -1.3410568342334168
-91.12164211270107 -64.41164518300289 -1.2038660041038094
-88.13320319127865 -64.27408755049883 -1.2182587518576027
-87.6292289792805 -64.20276531225267 -1.2246263262474593
-86.48006124561928 -63.988323957327154 -1.228296972076182
-85.38753265101231 -64.25964414984773 -1.2329664339993949
-84.90262465262373 -63.87711408922668 -1.2386706119556408
-84.12607355611311 -63.84585356922551 -1.2450336309793153
-83.14586634599524 -63.89307630242739 -1.2471052717447428
-82.1067732252654 -63.65553574979966 -1.2546254481825223
-81.72439481832579 -63.69078686062129 -1.2610777058689113
-80.61827842039867 -63.57424316582552 -1.2655862526993464
-79.73067593539345 -63.25299775066705 -1.2660547958783521
-78.25602062348003 -63.29542592720831 -1.2818376285387076
-77.74300741610772 -63.09678250039385 -1.2847251602411196
-92.55932086893864 -64.41234294107011 -1.2101515693477225
-79.54573451553591 -63.10072117807576 -1.2902384284572979
-79.27596477241869 -63.183646763772515 -1.2934848367101208
-93.73929919463797 -64.12050210629648 -1.2147967273912532
-80.40792631346308 -62.87955472083084 -1.2960953093677878
-80.3758701095381 -62.75855515237004 -1.2982142001973225
-103.94108051480602 -64.49668271367368 -1.0904234829916437
-103.711127649076 -64.36536849702273 -1.092597544977938
-102.91123375794281 -64.42472500276338 -1.0994548491150267
-102.04729703266126 -64.26327869530829 -1.1048801976252125
-101.24765377560095 -64.15554092022988 -1.1097605472368768
-100.35636372353646 -64.03489474998909 -1.1149847514565059
-99.18529220889826 -63.93951660075427 -1.1195164242576952
-98.61721224514628 -64.01460057256489 -1.1250047140233441
-97.92943864913508 -64.23136460607697 -1.1318327175442098
-97.31144512287861 -64.47273473108991 -1.1367837392588842
-96.36658751760889 -63.9261616486346 -1.1409293716522464
-67.93885094193729 -61.44478213998243 -1.316378786788752
-67.84429240159054 -61.80465238958828 -1.317648252079222
-66.41541521767537 -61.66712230314095 -1.326766757840608
-65.66911065787234 -61.415957741468176 -1.3304523418531988
-64.64224993283321 -60.98941198676884 -1.3325316124736184
-63.93413170344598 -60.61829212103639 -1.3380757885684698
-63.05889603521552 -60.76769703945176 -1.345008225791505
-62.24227764816861 -60.61750292233182 -1.3496448817557034
-61.37139842376739 -60.42871869969819 -1.3542379071083974
-60.49138685547307 -60.38809545337434 -1.359320902643943
-59.75424186313785 -60.34664868411716 -1.3622530127692412
-89.56918856851543 -62.88010113340449 -1.193905566026575
-88.48311092734305 -62.84412270299535 -1.198264161038495
-87.97109053017232 -62.76071114954769 -1.2047292067493647
-85.2745284014304 -61.77536783057052 -1.2224958106827544
-84.87800716749003 -62.38494519126358 -1.2263156541913551
-84.31679772653338 -61.85466725652495 -1.2285780672311704
-82.24274163724303 -62.212348663113424 -1.242876648679779
-81.80359123510817 -62.05825643868723 -1.245827133593761
-78.68699758588245 -61.879175301402014 -1.262621117963931
-77.53440141446717 -61.74500373320976 -1.2653684689045575
-76.97415724235113 -61.67327786855114 -1.2702378613748582
-76.3681299685565 -61.631982170555325 -1.2742143218632367
-90.86845256110169 -62.860308115900125 -1.1994013517650528
-87.82669154785836 -61.91898588019774 -1.2068786418114514
-87.86005935958323 -62.73213239309783 -1.2137650668941158
-87.25569672985297 -62.4779961246836 -1.2197841559922655
-86.13360466642574 -62.444493551070764 -1.223676210074278
-84.34653676447618 -62.312225812820856 -1.2337028757197797
-83.5603119387882 -62.15221736738475 -1.238714250407097
-82.85441761369944 -62.44856571372327 -1.2417395014741874
-81.74824781885279 -62.06250870773998 -1.2498130651113064
-81.28477963243978 -61.973706434409934 -1.2566822965656808
-80.29284741118461 -61.83791251893575 -1.2606598532182713
-79.42739887118883 -61.898469263870005 -1.2624319064007332
-77.97969365278388 -61.57126850609042 -1.277418836689134
-77.51613374776176 -61.635710824317414 -1.280932392387082
-92.32488594734947 -62.70822250478278 -1.2054452223539895
-79.18819113327923 -61.43256076887609 -1.2851986564411593
-78.94229249834886 -61.403054688895466 -1.2886860510247986
-94.11384589765493 -62.0887510913893 -1.210893213797676
-93.67376256445898 -62.55151163607094 -1.2117036012394207
-80.39414900711813 -61.35368161164885 -1.293133053908396
-80.16813614690531 -61.483186651282864 -1.2954254111173535
-94.52450483553812 -61.904403968059555 -1.2125532368103724
-94.72477924444928 -62.148749118005384 -1.2151929004440039
-81.09788439612007 -60.89811228806421 -1.297039920293452
-81.12281063891054 -61.152382385964756 -1.299399458509885
-103.62523949292182 -63.32208008286439 -1.0866898188926002
-103.2315337987047 -62.67137460091389 -1.0879624200223126
-102.36084080764158 -62.521889276611574 -1.0937362208833032
-101.6130752720222 -62.61262773075045 -1.0991327020555632
-100.79433701884999 -62.63913521774651 -1.104362993284682
-99.99874346711503 -62.76763158993384 -1.109938506338162
-99.22157695098734 -63.01055029061249 -1.1161152849992686
-98.65357098393329 -62.714023063595306 -1.1189709784800759
-79.63548476696086 -59.94752111088539 -1.2239227595368658
-64.73589166284306 -59.95426767712358 -1.3288563170498506
-63.34650468905541 -59.74443535721913 -1.336661006372615
-62.58068295012252 -59.40924612536265 -1.339953652010786
-61.67757782974593 -58.950035006434774 -1.3440710843525323
-60.95183081221866 -58.8215473759748 -1.348670818623869
-60.104323626641296 -58.889360106987716 -1.3546063664787085
-59.49893889037981 -58.92241639826189 -1.3575126048080945
-89.14549874745158 -61.24498800789719 -1.1886068559437915
-88.06581508596778 -61.18055440844273 -1.192731131705762
-87.64113923958318 -61.153465629187636 -1.1997840829805002
-85.02864792164256 -60.648637873318606 -1.2187836189642323
-84.45659220645912 -60.78648132515693 -1.2207311473859603
-83.83197471355716 -60.51242620200834 -1.2256554600676084
-82.50077126770042 -60.16454474220063 -1.2330952730880507
-81.82671271792863 -60.56061066942827 -1.2369498100562988
-81.33459081967123 -60.463261402414695 -1.2401985169467569
-78.31040811228343 -60.162197045785334 -1.2580215437310736
-77.0948143375186 -60.14951276200941 -1.2602443242517982
-76.61702715760386 -60.07824306464906 -1.2657186760355337
-75.99209023093135 -60.06290555472245 -1.2692937359428238
-90.51055606679162 -61.13975202119232 -1.194447160257892
-87.68929563808076 -61.08543608773397 -1.2041971909919342
-87.51884217873055 -60.96490480512601 -1.2087084811954425
-86.83869305850656 -60.790087340105174 -1.215126098872826
-85.73676549098813 -60.81624175105266 -1.2185853337250412
-83.6489325166515 -60.62964560290365 -1.2293354471298388
-83.11826980569577 -60.74123497282915 -1.2335021704770077
-81.3220782202823 -60.33538658364523 -1.2448698048674023
-80.90425637475798 -60.280423951380925 -1.2517156349529839
-80.00034778238837 -60.25756613777624 -1.2560309903530547
-79.12946554983729 -60.18042541699046 -1.2576922830326525
-77.6447496872508 -60.02020116736502 -1.2729464676714703
-77.1622489986775 -59.80098419372101 -1.275723318335611
-91.94169809285245 -61.01674744468524 -1.2001130627624117
-78.8944048325747 -59.97246988216981 -1.2810268487734466
-78.58405589068447 -59.88257528546531 -1.2841409350275923
-93.73171642411681 -60.93363802977578 -1.2065294391503283
-93.31613100886817 -61.04149131466517 -1.2079441247530587
-80.16719794527391 -59.80296377137425 -1.2889018668448335
-79.90642635747412 -59.65864606500232 -1.2913063692061384
-94.78041151899491 -60.815000851563994 -1.2115236869876234
-94.75109417706703 -60.92944005388994 -1.2140929985730042
-81.02912617974391 -59.65402059693259 -1.2941723441049828
-81.31304032289115 -59.5918579383021 -1.2977472964176537
-95.81841419665335 -60.15698233211113 -1.2157409613053445
-95.67937707045536 -60.27646429057638 -1.2163852519629323
-81.98045457065949 -59.11052177767754 -1.3007136514126252
-102.83509489569089 -61.09515973762574 -1.0829072486718019
-101.94128540870977 -61.01849075190543 -1.0887106408777136
-101.13261456818582 -60.991743239419506 -1.0935182738655644
-100.56119540764129 -60.9106823622231 -1.0957326210979978
-79.43310054440029 -58.96823373625783 -1.2209944517829954
-61.173734913033115 -57.39363431859048 -1.339235211649304
-60.4571358386919 -57.1756560800412 -1.3434117055351331
-59.63748913152905 -57.14091982130771 -1.349130705243334
-59.049423385430686 -57.22184354492595 -1.352026528404012
-88.8484225031763 -59.604588335414256 -1.1834401142997961
-87.74186163268742 -59.67281291649736 -1.1874603955677552
-87.32072006967785 -59.44751407164976 -1.1947685036515445
-84.73810785831765 -59.07020244060418 -1.2134826662292935
-83.96995044316041 -59.21736893098422 -1.2156399466874197
-83.32786925656652 -59.10853710013073 -1.2215846048265369
-82.51186556550998 -59.018098342851204 -1.2275822723146006
-81.47936428782239 -59.12305362012712 -1.2318023409155305
-80.8550486238975 -58.72059466707992 -1.2353194099293672
-77.8335174485 -58.596958672003105 -1.253670823153515
-76.7567291004189 -58.62737603774437 -1.2552506587870875
-76.25019716993143 -58.35350329182904 -1.2609013843066472
-75.60475150454293 -58.39424893120105 -1.2641346839842722
-90.1517935764839 -59.54871925785815 -1.1893203390334681
-87.3352297544884 -59.32409471975262 -1.1990054660081435
-87.18484713390819 -59.34683400311117 -1.2039272572644195
-86.51877972326797 -59.2789763850127 -1.210355749504546
-85.48138343842757 -59.242608663558485 -1.2133598741558234
-80.90778941979188 -58.8062708284717 -1.241123001652426
-80.5524700106887 -58.63433047252367 -1.2462210879961189
-79.60537815860727 -58.67408762462536 -1.2515145795753388
-78.75541859749434 -58.42135965230189 -1.2524878492144693
-77.27100903265818 -58.35654000823072 -1.26803929062446
-76.90977679129365 -58.22659972400038 -1.2715302973274305
-92.43392704716959 -58.891514813915535 -1.1960359464282084
-91.65472900545925 -59.473064742514396 -1.1960542200000326
-78.58394698772128 -58.171942554222454 -1.276216373952366
-78.11818598901579 -58.23349841144679 -1.2786653697958268
-93.22851393315052 -59.45748032176091 -1.2009575782712516
-92.84780902614128 -59.31205836790074 -1.2030547071100584
-79.85542792148189 -58.077649619468666 -1.2839902564769334
-79.48836119218662 -58.1499247620512 -1.286583486080019
-94.7432678633879 -59.27291722479505 -1.2079496420067153
-94.35679539698306 -59.05992842421113 -1.209089533556353
-80.6618225291421 -57.88984951659606 -1.2887497705697974
-81.01950943207515 -57.94833761023183 -1.2933543285080031
-95.9386565694517 -59.114948648585354 -1.213664364169686
-95.76487423863618 -58.989658082499304 -1.2147562004517947
-82.05088951148788 -57.81302232210696 -1.2989371327522377
-96.65607803173069 -58.417667550878676 -1.2163754778799134
-82.92940354384433 -57.040548675943185 -1.302267485685259
-102.3980179864245 -59.609042500682186 -1.0786165253731967
-101.5397812761026 -59.42068488694724 -1.08311722625202
-100.70962954613555 -59.38930689722765 -1.0879055585861663
-100.18861220040378 -59.47725142161863 -1.0911557239471037
-79.23831035301477 -57.41997549250422 -1.2169418887340795
-60.84392586771777 -56.167012222726136 -1.3350212539708768
-59.99951235629211 -55.81714594081787 -1.339335584605098
-59.21409404058589 -55.52715960062326 -1.3436199031851845
-58.725691370018474 -55.73322290459922 -1.3471645321826025
-88.48453081227822 -57.85301919609347 -1.1782286985590786
-87.34334274211534 -57.95088043102458 -1.18200823101701
-86.9968622332543 -57.95103648050769 -1.1903277783736739
-84.34527389816517 -57.58690246967085 -1.2084994978048715
-83.56230439517896 -57.44268072391888 -1.210121225076405
-82.869664918014 -57.53440865283035 -1.216107872590503
-81.9902272873129 -57.246686048503086 -1.2214526298147013
-80.9733879577726 -57.17996260507566 -1.2259471384293363
-80.41611877393744 -57.08849324133256 -1.2315870734806842
-77.60549336170125 -56.944187417409964 -1.2486376427199684
-76.42878833735844 -56.9744936954547 -1.2500256285608302
-75.90310498085289 -56.933138389737465 -1.256232812721818
-75.33792550460262 -56.87631940817069 -1.259928965751357
-89.8173578846222 -57.86231158702752 -1.1843452663477645
-86.9327738295058 -57.569226917190434 -1.193868882595461
-86.80559890946253 -57.6596226457134 -1.1987709830215285
-86.18723613554309 -57.63587908211886 -1.2048474467107326
-85.1992637358158 -57.614204955984235 -1.207820709525363
-80.4010778114678 -57.03605318442036 -1.2358294284974178
-80.18811481930067 -57.11426628540595 -1.2412112026485924
-79.3159026942285 -56.98933253664907 -1.2461302149970068
-78.49024431840321 -57.08961868534521 -1.2483115039984156
-76.96018021830852 -56.64323139982294 -1.263453992495233
-76.52040464253032 -56.645720168709545 -1.2665150184944456
-92.28074930237995 -58.08322023270489 -1.1937053446886503
-91.30705063176389 -57.733461734964486 -1.190738314060414
-78.1975500075958 -56.684004623060645 -1.271399460016761
-77.75061549838956 -56.54155757107691 -1.2736370727007742
-92.90856288048045 -57.88368522814805 -1.1961973893309084
-92.53986318369972 -57.715586120015644 -1.1985075387851993
-79.52523981400526 -56.47010385097232 -1.2792534835868283
-79.09762600016941 -56.497984406775736 -1.2816294161134947
-94.40029488569378 -57.657579652655286 -1.2028108608932329
-93.99909519503397 -57.50042153951168 -1.204516964325824
-80.46502703792635 -56.350228253771235 -1.2848641659539128
-80.53886399868027 -56.32740748602326 -1.2885342249841043
-95.83976343253462 -57.46017416576726 -1.2094323185284053
-95.60234892722147 -57.49456973977148 -1.2114108892065838
-81.89607173896124 -56.21809498274996 -1.2955802856557816
-96.99209532352138 -57.25364021561093 -1.2153512218518485
-96.57248521028698 -57.18849405187719 -1.2148762565350917
-82.89711021755573 -55.953791810238485 -1.3011034905705614
-83.67303371654295 -55.28315615748335 -1.304493507442881
-102.08446731770806 -58.3137470417724 -1.0739981019615368
-101.44077225283417 -58.471372036364095 -1.0788000968237421
-87.31236611333559 -55.77838492480076 -1.1623080840613993
-87.16885515019591 -56.085079517250634 -1.1647563359024404
-85.74227185367717 -56.008752766656265 -1.1736740475976313
-81.95336478442375 -55.445514994971305 -1.1991980624773682
-79.08604857483468 -55.66753935129279 -1.2136323594717704
-75.1721882883712 -55.0675496139725 -1.2395824690583466
-73.5319644710813 -54.848069148085756 -1.2485157616138491
-88.18391016028438 -56.35558189974063 -1.1737396214670288
-86.92833548172254 -56.23009337724645 -1.1765677874649287
-86.5670723365509 -56.23327996153776 -1.1843428481496714
-86.53171740081665 -55.895471421278344 -1.1890117764672026
-84.02653386447595 -55.80226014148043 -1.2022723002045324
-83.11275430397251 -55.8447075088211 -1.2055043179097833
-82.29968668290901 -55.71693310913352 -1.2105075652155655
-81.46365596554742 -55.509023805825805 -1.215431319613165
-80.48094818573696 -55.528324919213176 -1.2206933479413895
-79.90195438840209 -55.42098976457652 -1.2259580616612096
-77.25926792571711 -55.35788689910754 -1.2436022470335824
-76.0916784066997 -55.25012061451338 -1.2438887698454115
-75.50438137921705 -55.24324206328831 -1.2508377288542367
-74.88034170235102 -55.29375328202 -1.2544240716352166
-89.45694085811934 -56.22960550595968 -1.179517463345089
-86.48652843290739 -56.16469203538538 -1.1935573467782599
-85.72533179990528 -55.97348779593992 -1.1995786055229272
-84.89958067938876 -56.14820853306907 -1.2027527901100974
-80.00252785632497 -55.66767918864783 -1.231558392460722
-79.76881035132566 -55.50014506463157 -1.235529512235683
-78.8659303282339 -55.3357826918267 -1.2412335548288627
-78.12522145406764 -55.376540330053174 -1.2429911216242822
-76.65015048911879 -55.123082948791385 -1.2591120625471175
-76.14105058533757 -54.960156425644 -1.261378863887716
-90.9588143600544 -56.06271758055705 -1.1858284629215503
-77.86456163341441 -55.01681715557053 -1.2665631830198683
-77.3599357616647 -54.74398971904463 -1.2682465954025857
-92.62127969645698 -56.05619801656495 -1.1911812980734073
-92.20350377945891 -56.073957487324684 -1.1936564728819286
-79.07168225988936 -54.81344087207721 -1.273634283188689
-78.68082728566901 -54.74242115965409 -1.276216050854869
-94.12072359706909 -55.92246006396428 -1.1978598983074202
-93.70071296616503 -55.83119738243299 -1.1999029683074465
-80.13690290792552 -54.85467162662302 -1.2803072266004178
-80.2142592365636 -54.58159242146612 -1.2838472407550408
-95.59212687966323 -55.84702237467721 -1.204728879727559
-95.12366961196072 -55.90562839925336 -1.2063136231729956
-81.47189373242611 -54.636624293472714 -1.2902549751307837
-97.03295837078616 -55.74830109104779 -1.212128283450307
-96.50140802943126 -55.73443357109477 -1.211923309519538
-82.83719117776424 -54.530712873680386 -1.298345971910765
-97.8852673091768 -55.38766687532774 -1.2162215497509676
-83.82265106852974 -54.03372610884693 -1.3035442229379983
-87.42860579327558 -54.757465190252844 -1.1579947294378883
-86.98804893568656 -54.87364244116091 -1.1616986514293588
-85.50930117705761 -55.075627595767294 -1.1714455105247303
-85.5161650074351 -54.24548540978634 -1.171042448168636
-81.71403027821002 -54.17614102087018 -1.19425285661768
-78.57507194027482 -54.13694630739959 -1.2096842476983591
-78.73598576417778 -53.27153032159966 -1.2116311555849881
-75.14484997482258 -53.709602583230144 -1.2356615362057033
-73.19036984020401 -53.62244950688341 -1.247048543817284
-72.32505099755095 -52.88368678437786 -1.2474186091567754
-87.71331690119297 -54.67570770739998 -1.1686765191019948
-86.56555544959302 -54.617842559913456 -1.171404602658677
-86.00240615488912 -54.604578843199945 -1.1792041279119718
-85.94717132904947 -54.21550230084595 -1.1848288999509047
-84.45525130022796 -53.546829761499524 -1.1923209214578154
-83.75956207688957 -54.24170643303075 -1.1961648373377054
-82.53342993913355 -54.24127241998081 -1.1995200381225952
-81.96601647485048 -54.14782033459656 -1.2050862051538709
-81.08730019674657 -54.107949613051254 -1.211147047232053
-80.23079331889771 -54.11672656596116 -1.2157500878306344
-79.33046826706104 -53.94508895892059 -1.219986401968818
-79.2145620198508 -53.618544153127814 -1.2261621271898115
-77.80431247456069 -53.290994092395024 -1.2350554073627864
-76.91601211040741 -53.64613053737723 -1.2372023086645172
-75.555656518658 -53.76386731145142 -1.2393274439382709
-75.04952737764751 -53.65929273801376 -1.2457102252261796
-74.53250369427728 -53.43384180259196 -1.2491050724791415
-89.17081253917074 -54.634761137434836 -1.1751614159406603
-85.86155796919789 -54.41072722867169 -1.1888331519351456
-85.22625999065872 -54.29889357876887 -1.1931061444954376
-84.63014998956807 -54.64384290686971 -1.1968248658301237
-79.07685427278084 -53.79407766333201 -1.230675531807675
-78.40968382865803 -53.67744089222623 -1.2347733853198233
-77.94087248549386 -54.27687814602863 -1.2389927223469273
-76.25885921184245 -53.4336394851034 -1.2539128132540986
-75.79669590254167 -53.35239632964601 -1.2565555825300736
-90.5436637484316 -54.511800151914876 -1.1811855634328894
-77.46664667069543 -53.18139483732633 -1.2610747047482131
-77.14515435518034 -53.261906117525086 -1.2644160663315736
-92.4628674702704 -54.49920408831756 -1.1873870177422403
-91.95656836619585 -54.424001460767194 -1.1885054220097708
-78.74154395754513 -53.126703453545346 -1.2687408109037084
-78.4503037300044 -53.25970380454416 -1.2722656901168607
-93.6631116902984 -54.36753651759 -1.1925653196233523
-93.2757921897543 -54.304593565469276 -1.1950699792147634
-79.78408662224004 -53.244872007433784 -1.2753102634948987
-79.8317676499941 -53.0612381233097 -1.2790579924130097
-95.2256245824924 -54.172549240287125 -1.1994711942755543
-94.78407765160793 -54.36794067419146 -1.2018614584009781
-81.19766357730865 -52.862660091187465 -1.2858186880832965
-96.65164232621116 -54.208763245443095 -1.2063729002076877
-96.2530872933554 -54.01929685385652 -1.207624010342828
-82.44233893305879 -52.796506976478646 -1.2931848617015587
-97.92799299321756 -53.99745293956085 -1.2134665873927073
-96.97903656012889 -53.462701970953205 -1.2097271691234224
-83.7695228532221 -52.819210297863286 -1.3007977965647337
-98.82689168875991 -53.50060232761369 -1.2164737381345898
-84.57883794114314 -52.22867648588625 -1.3049848408743112
-87.76192322970681 -53.03032682995167 -1.1479232227638039
-87.41163671049564 -53.26879146805484 -1.153398893153851
-86.73561624531484 -53.20112594337752 -1.1571603265695085
-85.33621050051359 -53.609095165370455 -1.1694961596963753
-81.6086949430445 -53.03108106740709 -1.190100133383685
-78.29468609859738 -52.9240284353284 -1.2073631531996922
-78.51159805857885 -52.686135106050315 -1.2096512787711822
-75.13799288513424 -52.62234320955113 -1.2323828907637493
-73.01350257863477 -51.885693568916885 -1.241765682819866
-71.99104264503187 -51.69086523376237 -1.2463536581955876
-71.26148623358714 -51.138679327727196 -1.2474314342729826
-87.34342745505965 -53.007498242425385 -1.1632801298459652
-86.24438536877554 -53.01191195595759 -1.1658711985140635
-85.55678610399703 -53.27780852822461 -1.1750333928101262
-85.54002908450164 -53.16548952613179 -1.1819977625397304
-84.59370197148023 -52.910075996510145 -1.1884784795673808
-83.48715605533822 -53.077217325313896 -1.1916274390984485
-82.11221485623075 -52.611899330413905 -1.195706160781647
-81.55708172968592 -52.425259951847565 -1.2002145698149174
-80.79931263544728 -52.48121679581681 -1.2060463461906923
-79.92650622897453 -52.43940067696911 -1.2102805334279543
-78.87346024626412 -52.69259181795807 -1.2163190351001076
-78.75295081265905 -52.574733183586126 -1.22419363151661
-77.64849498887685 -52.495229983429226 -1.2317572201182625
-76.54551001621168 -52.51317179165591 -1.2330172874422411
-74.97324973520692 -52.00599079363578 -1.2351193710207897
-74.65392390116602 -51.99185755891875 -1.2402895779202083
-74.19313524929017 -51.91023395089931 -1.2443375030945791
-88.77837853932503 -52.92010143465066 -1.169704851979388
-85.44376185186479 -53.37987529946289 -1.185860601917424
-85.05997403653107 -53.299626726333734 -1.188403801165582
-78.64034093153626 -52.877246007684576 -1.2285109185237717
-78.1541807480252 -52.67920615921153 -1.230657094221618
-75.84992949919551 -51.88483678032728 -1.248919310800866
-75.52722366340004 -51.841815333336854 -1.2522745450239567
-90.22980315628497 -52.8970498641562 -1.1763473197347278
-77.16866216224246 -51.56975705595786 -1.2565929493148091
-76.80378033060266 -51.589822982188196 -1.2595183399539902
-92.17057721104982 -52.708396592415795 -1.1826153111761724
-91.51022549323629 -52.71715149810368 -1.1827640580198506
-78.46122078988212 -51.48137591019474 -1.2642979005187862
-78.21084379243348 -51.541114427856776 -1.267807729146614
-93.44817748772782 -52.70155836554747 -1.1883408719283306
-92.97499402976322 -52.74819288263461 -1.1906418454059022
-79.54521556661837 -51.62685715943615 -1.2711309404059854
-79.53662325241882 -51.2839982588441 -1.2740510363284618
-94.80521333973469 -52.54485414478967 -1.1941806261210632
-94.44818877570167 -52.552985260926306 -1.1968611330719297
-80.77335006363677 -51.3239391131646 -1.2804351043594555
-96.34055554388785 -52.80072690979099 -1.2018928150232742
-95.94106972962395 -52.40583146071617 -1.2031607921573615
-82.16078078176486 -51.28968460310276 -1.288654127804204
-97.74646378591771 -52.47771283086352 -1.209642066602479
-96.87240672300032 -52.095619261949004 -1.2066378347491307
-83.4761422453206 -51.10339838852425 -1.295749980153379
-98.98887342701599 -52.217199485471085 -1.214691719785249
-84.66368139506056 -50.866863593320474 -1.3031869270966012
-99.82575148544197 -51.7866109900006 -1.2175207366429985
-85.47383064903538 -50.26803785700917 -1.307385392505715
-88.14513409485768 -51.287636336746644 -1.1373044182287095
-87.83522716376656 -51.624673129364695 -1.1427131078772663
-87.04078676059207 -51.46463384319233 -1.1491092355753436
-86.36093375657559 -51.524280558939864 -1.152149892126376
-72.7064924937277 -50.15510888383829 -1.2368720786847764
-71.78140289697504 -50.33358275341838 -1.2434091145707553
-70.7403555395843 -49.95313637604864 -1.2461335033731682
-87.03108892209391 -51.428202400993094 -1.1586241329445357
-85.8019053820774 -51.37474161927082 -1.1610717165697848
-81.81538518051673 -51.01785750178469 -1.1912165808602113
-81.2507030968498 -50.88684171334556 -1.1953413477143084
-80.49771365020375 -50.74210198510065 -1.2009268940903817
-79.51723996521201 -50.704372214172324 -1.2050772715551576
-74.4367651518124 -50.098749012658665 -1.2299149401098863
-74.18571824136147 -50.23861018920866 -1.2360817348797228
-73.94946188724204 -50.12289202166893 -1.2395910850732692
-88.42346079488419 -51.23524455881497 -1.164840355490721
-75.64204776984872 -50.0895053918603 -1.2448025374985583
-75.23685211533687 -50.08788993434158 -1.2473072453578928
-89.88242729992804 -51.1792555180221 -1.1714745592806894
-76.91720192150572 -50.05953674788096 -1.252649978224946
-76.4405378452154 -50.08026257760487 -1.2546271788074292
-91.89947348642215 -51.23974782336482 -1.1784896942895233
-91.20010753226806 -51.14467254866267 -1.1780619933226004
-78.09387494352349 -49.90725018578124 -1.2594981047431677
-77.66077394079306 -49.881450418245734 -1.261632645719693
-93.06710708651646 -51.1083112000352 -1.1835769429024299
-92.77507158676684 -50.9557538349791 -1.1861193560772278
-79.04451131273433 -49.86437898267342 -1.2651776359501306
-79.19611506559427 -49.73042637438513 -1.269399608097066
-94.50376270383211 -51.00565823828999 -1.1898435708655402
-94.1476846414789 -50.8964623154849 -1.1921953544129846
-80.41807527890701 -49.62536617843007 -1.2757274460277241
-95.45959874266514 -50.85849301371486 -1.1938854796234148
-95.49397112590752 -50.674197135870244 -1.1978212428304753
-81.88282851224702 -49.62000130912065 -1.2826349204039649
-97.57387874520231 -50.681843088931544 -1.2062539111058732
-96.71603779856018 -50.40065660201401 -1.2027363687621588
-83.23914732472923 -49.46593353817497 -1.2907689666755227
-98.79683457829654 -50.65116695148186 -1.2110832855933023
-84.40837728604623 -49.34493894720162 -1.2988658312426264
-99.9322846998811 -50.42676353696396 -1.2154587285269056
-85.5245999154629 -49.13949333357575 -1.3054754432667472
-100.83363304676982 -49.74955753188333 -1.2179574078077877
-86.17544832757756 -48.489428273953315 -1.308523970395726
-88.46879428463137 -49.59370055623754 -1.127172503341318
-88.22801084897281 -50.110269737812615 -1.1328533090309
-87.53727564198189 -50.03233626857501 -1.1390596504453994
-86.80553340662819 -49.9214241823749 -1.1441204379890153
-86.05336804195593 -49.790489145308456 -1.147106645106533
-72.4321710769946 -48.47183145271275 -1.2316697241396108
-71.4967627868117 -48.44663750688861 -1.2377717310653018
-70.55644193898874 -48.46275974931447 -1.242993423447134
-69.69910495218154 -48.160196617869566 -1.2455524558622337
-86.60694432622148 -49.77676568154578 -1.1539739013552182
-85.52119908271595 -49.947359959799286 -1.1561271199362833
-81.39383689762805 -49.38083316580084 -1.186145525693645
-80.80682962167853 -49.25118453132941 -1.1901603715270057
-79.93638414410407 -49.07810939262366 -1.1962753569188609
-79.17833383083072 -49.26343033347965 -1.2000375887656698
-74.03522869940558 -48.548281906894154 -1.2250832506530989
-73.7884888893409 -48.65262959313373 -1.2314413985621262
-73.7395391707839 -48.54009246052039 -1.2354433079143783
-88.10980201454967 -49.66594793532552 -1.1601988169284614
-75.21413060781477 -48.520884287966695 -1.2396658538516656
-74.73625556077242 -48.28598668650192 -1.2409725332543824
-89.49948368037477 -49.665144161399155 -1.1667745794920685
-76.49191475678005 -48.31832496614525 -1.247322942256396
-76.17166540108529 -48.3299473081334 -1.2497981410217376
-91.7446209974727 -49.54114316325 -1.174568546132482
-90.87473030099828 -49.4633573521113 -1.172896802729884
-77.77818985669592 -48.184651549570276 -1.2548579083381821
-77.33833166647793 -48.2802297702622 -1.2567778395153042
-92.8009609278426 -49.435285340235055 -1.179169863504999
-92.30657830580078 -49.25464613280289 -1.1805052260185198
-78.62089144459586 -48.46635279492694 -1.2603759312414229
-78.98815316162235 -48.22698476654981 -1.2643439826839398
-94.01621510299181 -49.251008847713614 -1.1843428047221967
-93.76641376088901 -49.32899810450807 -1.1872935720695075
-80.1295541706318 -47.92783764513616 -1.270492280566541
-95.68888002430234 -48.924397285026636 -1.191311394206283
-95.28803579680455 -49.102175906883026 -1.1937218536779604
-81.44185851635547 -47.72360188113533 -1.2780882696476736
-97.2778884880631 -49.075930156392346 -1.2007473182247395
-96.51254307714592 -49.06860339206691 -1.199193781284173
-82.86757385532529 -47.79131372725198 -1.2866874074187593
-98.42238303644675 -49.08358528822108 -1.2059048367028202
-84.07794499858132 -47.754085725624066 -1.2945267622866499
-99.90206565408963 -48.959174500360405 -1.2122618410850359
-85.24728528181603 -47.499347028738725 -1.3014086211213916
-100.9422577622485 -48.56856823206564 -1.216245772211548
-86.35304701812801 -47.472047219847276 -1.3079147834719576
-86.51551135532317 -46.76424620268217 -1.3086228301932785
-88.54932341209594 -48.42764682998933 -1.1226626661144383
-88.04011325549105 -48.476142853801115 -1.1284222762415155
-87.15742387419161 -48.27699676931901 -1.1342452226778965
-86.42877779965198 -48.137905624578906 -1.1387572260186112
-85.7113033140767 -48.194146834273454 -1.1430411285766484
-72.52492911378327 -46.7655381198953 -1.2248733817726345
-72.03401526891595 -46.920423550413595 -1.2271467105882872
-71.20243405435605 -46.847962355254566 -1.2328169821287125
-70.24061091950911 -46.699718044780816 -1.2379265637612953
-69.3236457951267 -46.7967625288717 -1.243129651471469
-68.47056056522273 -46.36426061283798 -1.2449788594325097
-86.26195848471022 -48.15324933715783 -1.1493445744847044
-85.08122208891658 -48.19850038305352 -1.150635450166285
-80.93968082145919 -47.67802840889977 -1.1804723635223209
-80.46865636980942 -47.582648396352944 -1.1852009157515337
-79.79690518278625 -47.527849638144716 -1.1912830609439904
-78.68099061532277 -47.46020479302811 -1.1947135016496229
-73.61930737694266 -46.97483657300689 -1.2203015019143633
-73.42409095044525 -46.93581164375719 -1.2265122748954598
-73.69859203078936 -47.10210869828193 -1.23239841608904
-87.67110669336081 -47.954207732304056 -1.1550261801545918
-74.85762381974656 -46.81482161715576 -1.2349254799458267
-74.63729154269001 -46.67870288632654 -1.2372599577414995
-89.30235019669094 -47.99938897751183 -1.162402822245379
-76.11352477060194 -46.76638109066536 -1.2429189574156758
-75.94675020211652 -46.76376923430008 -1.245199825693244
-91.6545706287661 -48.182516461647346 -1.1716227102269923
-90.64604291723187 -47.867521527827016 -1.1684202988503214
-77.29814281218202 -46.623309080394776 -1.2495319529585087
-77.11775912009259 -46.470525067365664 -1.2516364694779256
-92.37131658047944 -47.7235327546991 -1.1740538123119948
-91.92909548052637 -47.73161088241719 -1.175402212002794
-78.25737525468647 -47.07813264198609 -1.2559872043773894
-78.50890612681296 -46.39005918078405 -1.2586142876443924
-93.84993612465186 -47.64231968014744 -1.180624078882014
-93.51561357481292 -47.78264504256786 -1.1829251882658887
-79.89569236970232 -46.41676881012366 -1.2668788889286957
-95.27360405483408 -47.6361344274641 -1.187052719397365
-95.01341681669206 -47.62654494230499 -1.1894379045378682
-81.0965264059905 -46.240263512286454 -1.2739895761419313
-96.75403977671643 -47.43722425651037 -1.1942907538498786
-96.1378628749743 -47.36259601254572 -1.1940233833522087
-82.34110499007222 -46.11354134673533 -1.2812013701299703
-98.0713716773724 -47.40048680098288 -1.2006952164880997
-83.66632750118318 -46.04139633361552 -1.2891430756987707
-99.52325626682847 -47.292309753700536 -1.2071568551669523
-85.01899005622175 -45.98270167758459 -1.2966640612106874
-85.33512451721221 -45.52266292672018 -1.3001354099679177
-100.96006205605374 -47.175423769961576 -1.213630618967095
-86.26120453127804 -45.78007012894678 -1.3032107196844727
-86.11757271312554 -45.96313480109655 -1.3052160777879331
-101.77300801137115 -47.0224452716299 -1.2167886011907487
-87.04580727569109 -45.828838127383605 -1.3086120825433323
-86.84705533597453 -45.66584155022485 -1.3087505642212676
-88.9446442921427 -46.90932850724565 -1.11280086803633
-88.47595200462595 -46.98541537788971 -1.1182494925536157
-87.66994464206516 -46.765976899721835 -1.1238045904711536
-86.90315175662757 -46.760486496365836 -1.129212725971334
-86.12339069933337 -46.70857330873679 -1.1344118850384999
-85.25122914518161 -46.50222518728923 -1.1380765981103513
-72.25133320664366 -45.26867794549205 -1.219825069237807
-71.69244207910157 -45.23282521843921 -1.221784916882082
-70.8540358024764 -45.37255268385207 -1.2285863785735094
-69.94659727003916 -45.06949908452796 -1.2328443994159444
-69.11330755840764 -45.0836645677109 -1.2378912331913798
-68.06328105230394 -44.99042085904936 -1.2426821346523944
-67.31285111433537 -44.53283714488819 -1.2442792609266884
-85.80632193658272 -46.47275554610833 -1.14403518217337
-84.79667701705215 -46.640889559505 -1.1451282587199234
-80.3476923028419 -46.09617713913033 -1.1754593283711354
-80.03851344038367 -46.037684565507995 -1.179273509112051
-79.24699424150569 -46.135308092913505 -1.1870226635021686
-78.21558702174548 -45.85757135050099 -1.1887926203169537
-73.2300498729088 -45.58723628360313 -1.2162784781396692
-73.05745982221947 -45.31738221175431 -1.22203061440822
-73.67767386821396 -45.841549536236364 -1.2296322868071905
-87.43615510111394 -46.34812464494495 -1.1507204586147317
-74.41502084223359 -45.072465709555395 -1.2301447826736045
-74.3963360597578 -45.40911387399116 -1.2330904644618232
-89.15210306233337 -46.87577152195482 -1.159549967393827
-75.55662606009773 -45.878566409894646 -1.2380987409382707
-76.39151464530578 -45.75815214591202 -1.2444817734729556
-90.83322038535447 -46.778858539832775 -1.1665631627953825
-77.57239723040205 -45.613906090726935 -1.250961974674054
-92.24273182906322 -46.412976912728574 -1.1710805121745156
-91.81593957969315 -46.41878704569576 -1.1714624903051392
-78.44113220267486 -45.22960088839594 -1.2556256875457303
-93.5427299720112 -46.00816961184701 -1.1762871819611282
-93.18020064433834 -45.929809426161306 -1.1778242238781886
-79.97869125018404 -44.993330169357705 -1.2610410323677925
-79.5913081882626 -44.71168464862985 -1.2615464645756709
-94.94846581965197 -45.99635499928763 -1.182608685860563
-94.58267902729354 -45.89317306083495 -1.1837599185592154
-80.75541922667699 -44.596020693298385 -1.2691393344041944
-96.40362597137072 -45.71112542608464 -1.189605672263444
-95.68303404381923 -45.76677828407052 -1.1885530515279448
-82.06306195777431 -44.567213033994875 -1.276843606702955
-97.69829549534253 -45.74656246589967 -1.1960505360941955
-83.407727854262 -44.36161807916901 -1.2845178930924486
-99.21916644127958 -45.65910950434296 -1.2027783369391751
-84.61403732621385 -44.33006861953907 -1.2915801060348413
-85.02624871055691 -44.436959503237794 -1.2963745463879113
-100.62052481472986 -45.492792943981144 -1.2088136328112988
