# .PCD v0.7 - Point Cloud Data file format
VERSION 0.7
FIELDS x y z
SIZE 4 4 4
TYPE F F F
COUNT 1 1 1
WIDTH 828
HEIGHT 1
VIEWPOINT 0 0 0 1 0 0 0
POINTS 828
DATA ascii
-92.38899889207148 -92.31784669011515 -1.3233497866302273
-92.06573046715752 -92.54222559746894 -1.317477072024008
-99.87576731088856 -90.02572878498205 -1.4631034037811805
-96.85016555301316 -91.20913271600789 -1.4163021577709685
-95.7583057947555 -90.7026082985531 -1.4113759689715157
-93.80526961001594 -91.3278305712332 -1.381024022260859
-94.43798603661583 -91.51986676635336 -1.3787115584726175
-91.35356210165179 -92.44583236300845 -1.3305322476250323
-94.4832814663908 -90.99290005470324 -1.4086312538739343
-93.18222573086067 -91.01733471322254 -1.4013707947820147
-92.53248137216298 -91.24325553918885 -1.391375266649727
-92.84070275579762 -91.26356506276522 -1.384743176277763
-92.85545363518663 -91.846422046956 -1.4001907821576074
-92.6771122746344 -91.71832883534887 -1.3971143109539166
-106.85592598283075 -86.3905805551259 -1.530230907661527
-106.41071306215274 -87.09611677087298 -1.5263099817662436
-105.51433361336979 -87.25363800683003 -1.5176254754431948
-104.84376066041484 -87.38060855292461 -1.5092210982304657
-104.1830920950233 -87.63414857495613 -1.5008672063225108
-103.5155808779134 -87.89145192680932 -1.4921419284244921
-102.83112175993591 -87.93240245076154 -1.4829640804773343
-102.16380569272089 -87.92018891385925 -1.4737941781876671
-101.60627936044436 -87.75110287773964 -1.4657267133886651
-92.23525802184014 -89.91737968934434 -1.3203531356942992
-92.03084076389948 -90.36006389588938 -1.316889503073861
-91.57687602839948 -90.8134036969946 -1.309088359661488
-91.14318071409058 -91.19194242869109 -1.301216712592949
-90.63946273896671 -91.18305480339451 -1.2919604413468335
-90.17919098381938 -91.33345077523123 -1.2832784613428307
-89.72984127219271 -91.50647553239155 -1.274384989546287
-89.3304608771885 -91.66871174006177 -1.2662723952021884
-89.0365102549743 -91.87920063755264 -1.2577292278818795
-88.754492810598 -91.51532275507891 -1.2498984874405854
-101.59745428139215 -88.45839164826174 -1.466067317402358
-100.34350221411755 -88.33179036080301 -1.457683337486934
-100.13911966487281 -88.48870100802164 -1.4485190113972424
-99.3145472403272 -88.7609941067237 -1.4398829987623918
-98.45839350062356 -88.87425994208454 -1.4305157883194841
-97.72877908500543 -89.01916977376013 -1.4225447644617246
-96.92220553563972 -89.10725479021501 -1.4134748565684694
-94.11492713893553 -89.00941539108922 -1.3720808595850322
-94.11618504321177 -89.79583346119117 -1.3698492310783452
-93.81214548315828 -90.02560825619965 -1.3618380236636325
-93.43907928176078 -90.12933890442591 -1.3518665783275072
-93.14665211587115 -90.29112614078095 -1.34381450225144
-92.82317953651342 -90.33929757748807 -1.3346494468748313
-91.83676967517566 -90.62938145553619 -1.3252633483777463
-92.20474419845806 -90.98443996778153 -1.3199991763080479
-99.61751969638907 -88.9454835361835 -1.45903777681522
-95.45181967081193 -89.14616474446207 -1.4059227273325683
-93.55520218167212 -89.80194962003942 -1.377153034560324
-91.08835325078627 -90.68730681422235 -1.3261906024432735
-94.11045859325188 -89.1913471492302 -1.4020077567436895
-93.06554930778137 -89.40777475185014 -1.3954736383177486
-92.53010071302221 -89.65812620596412 -1.3876386245093173
-92.68500191483973 -89.65359055797805 -1.380423626671876
-107.0953805834072 -84.73876033642244 -1.5338772831540355
-106.70767490052316 -85.29503228639568 -1.5303516717137375
-105.77484887620194 -85.48193922405545 -1.520649974201764
-105.18058772182862 -85.6824390570419 -1.5131199389629608
-104.4902955767701 -85.81991937131711 -1.504287886954315
-103.88223639283346 -86.07962804997462 -1.4963196448630296
-103.14570722210898 -86.09223836879511 -1.486414774181757
-102.5134311852414 -86.19210325920143 -1.4776823479474182
-101.931127926781 -86.39918633752083 -1.4694922127389731
-101.32253384584648 -86.69041534773118 -1.460950887469228
-100.94171056125333 -86.44486833652584 -1.455260346671175
-92.11857526902294 -89.08478107449217 -1.3181956898557274
-91.83667710965037 -89.09748828079631 -1.3133064976753488
-91.31023591530956 -89.27956854969511 -1.3042493681883127
-90.8354000737884 -89.52362512936563 -1.2960560189584298
-90.30549447622184 -89.54286813607521 -1.2866710913501906
-89.83302054879341 -89.54060768837233 -1.2780285389101933
-89.4230213045731 -89.88138311085858 -1.2701806204821329
-88.94060503793683 -90.04920166342899 -1.2607982626663925
-88.48790831979777 -90.1404940038257 -1.2518262020305344
-88.1791494686955 -90.39924479089223 -1.2437494064511414
-87.87243386685068 -90.0142819821854 -1.2359383622480196
-100.03089659449357 -86.67308353728833 -1.4523765986446586
-99.8441706789511 -86.75061802458967 -1.4430580752722033
-99.06533547403312 -86.99229128769039 -1.4348362202821172
-98.2627622860545 -87.06900642925073 -1.4259011825454269
-97.50994152083473 -87.30713853332192 -1.417582205876155
-96.71002395675791 -87.39235140653798 -1.4085419103941406
-96.09894413040018 -87.50120843578802 -1.402938756751056
-93.95474486028975 -87.83600251464125 -1.3690301591290417
-93.89515832834955 -88.14343613473281 -1.365034506675423
-93.53896358263897 -88.28118049958994 -1.3558462697580593
-93.20956765047983 -88.42775709052782 -1.3474635507831112
-92.90913001155053 -88.65106021787713 -1.3394055447067348
-92.5958818379103 -88.76659042806791 -1.3306049929543589
-91.66752558324572 -88.96480023593426 -1.3207467094438097
-95.20945326107721 -87.62409195644443 -1.4006751405533764
-93.24635723534314 -88.1858841539481 -1.3732306147822935
-93.89210008514695 -87.7384993115113 -1.3968281857646152
-93.12825221269894 -87.85154254717288 -1.3916587310930513
-92.49464816367113 -87.92505131128304 -1.3822066572197864
-92.56171071378874 -87.94338315360797 -1.3758890470520886
-107.35266184884289 -82.87973700603087 -1.5377383107961176
-106.97489773430208 -83.4881055656795 -1.5339022560468158
-106.18644336826027 -83.73202866918236 -1.5255418361191142
-105.44593247952369 -83.80125757460105 -1.5160610642228853
-104.79149796974565 -84.02104103830975 -1.507596561782178
-104.13660181097619 -84.15062971443618 -1.4989406987422969
-103.49055309387505 -84.34877913517627 -1.4902784832418883
-102.90782123098363 -84.47315230219014 -1.482201042744304
-102.28420301763607 -84.57318605453123 -1.473349675009561
-101.66822735108 -84.81030147413068 -1.4646653517522688
-101.01516834330745 -84.8765633846711 -1.4552124435524516
-100.44163030886683 -84.76203794376369 -1.4473608000285447
-91.86501487551111 -87.092430871203 -1.314039989688949
-91.555145953914 -87.4968380163061 -1.3080058344006522
-91.05403148544855 -87.49624084787766 -1.2994851499437359
-90.5268040885548 -87.69741412204377 -1.2904425043394405
-90.02224013127119 -87.93915926535745 -1.28173786860339
-89.485926932537 -87.99407742897127 -1.2723217836316054
-89.0530089906832 -88.23157415525644 -1.264367257991077
-88.62065905077404 -88.35207197321921 -1.2562548889324254
-88.18372396034857 -88.56050576859522 -1.247806958968215
-87.74057559564052 -88.7199027852558 -1.2390882962929255
-87.43189497313497 -89.027194816078 -1.2303963912813582
-86.99783942838366 -88.58985844258217 -1.2217580084908328
-99.73575305676964 -85.09120853532315 -1.4476108176644393
-99.56476352041028 -85.13607277511898 -1.437806577213369
-98.75486242836335 -85.32568863916977 -1.4291186439311536
-98.04108383343842 -85.49073571607836 -1.4212635740331048
-97.20167319888168 -85.66345891684514 -1.4117530834493732
-96.43383364936075 -85.76375710842112 -1.4030276011582787
-95.84726140936854 -85.85897938520898 -1.3975484501331665
-93.78264422472003 -86.55656601403244 -1.3656670770328687
-93.67516658910583 -86.58055535224835 -1.3602592456527078
-93.30914313648219 -86.75452771019997 -1.3510166223110103
-93.00760963265523 -87.01358241932732 -1.3434331607715728
-92.64193010624354 -87.11702170718766 -1.3338681661475311
-92.35889612299525 -87.27002612462749 -1.3258927460595058
-91.28319847829745 -87.40379663258234 -1.3157323318805398
-94.73701257645689 -85.94846898974417 -1.3943140548118416
-92.94816727351028 -86.33856634759394 -1.3687707121709929
-93.71414531507628 -86.2677415000336 -1.3916568589652334
-93.09878618268505 -86.13244070595924 -1.3863762918711295
-92.47001284008704 -86.21708172249902 -1.3769943178165607
-92.44806479102627 -86.67012832573519 -1.372819635393762
-86.39678407487166 -86.99497234270812 -1.2070523604841064
-107.70567666961631 -81.1175991174573 -1.5419618922647575
-107.23508069317803 -81.76440490494626 -1.53714088785321
-106.4694718265918 -81.95706149929902 -1.5287869157727965
-105.8326842374852 -82.0732543927172 -1.5205699499957173
-105.17084087178671 -82.30061805150137 -1.5119632134998193
-104.46762322618581 -82.30809417895162 -1.5026222632045947
-103.85052933813637 -82.54908178873839 -1.4942938210573269
-103.18411951049666 -82.6110190690698 -1.4849447392335227
-102.64037867076868 -83.00621341125502 -1.4774257503715587
-101.99962217584658 -83.01996266848825 -1.4682381337294128
-101.42057952786413 -83.28480172774104 -1.4599967904372841
-100.77257262405162 -83.25798972518906 -1.4504846982986292
-99.98147519135611 -83.53706402955007 -1.440497770465984
-99.64628291088097 -83.4057450683083 -1.4362949440609123
-91.92021246942645 -85.25666786869833 -1.3160826781832144
-91.70593445941047 -85.71865324982974 -1.3116373212087606
-91.30267365379548 -85.8283826725611 -1.3031170919731732
-90.79591099346202 -85.93728883515635 -1.294583732128366
-90.26613770826539 -86.11985196215188 -1.2856465715735674
-89.76293077449554 -86.33885778260691 -1.2770150368557474
-89.31239792426953 -86.59928075841155 -1.2692464126675542
-88.76342351286387 -86.64042417197311 -1.2596243941046485
-88.29529091884552 -86.74823320866115 -1.2511995108667362
-87.82810773172406 -86.84523595284654 -1.2425040590114702
-87.3861520220303 -87.02097787405549 -1.2340418519106087
-86.9661166312046 -87.2417703176793 -1.2258617972172234
-86.57828783280414 -87.45718700389342 -1.2165820005898065
-86.23995150893722 -87.18603312094206 -1.208708601837523
-99.4084323770708 -83.40157910395166 -1.4427958198034228
-99.3642209309437 -83.66296183964144 -1.4335838009584143
-98.53745392384229 -83.72810006070102 -1.4245081527521917
-97.77893732295186 -83.86025484244324 -1.4160763128004028
-97.0116520127151 -84.0361383561437 -1.4074039841629542
-96.23037353461004 -84.1440377755942 -1.3984529387218894
-95.64716496164101 -84.38790054844577 -1.3928874051106162
-93.54870653509137 -84.78084588959636 -1.3608668497844116
-93.4173776000088 -84.95251729613732 -1.3547809779996611
-93.10342513688997 -85.05446252338656 -1.3470234380125756
-92.71868717451619 -85.13463909186957 -1.337529302971041
-92.44079951487836 -85.45801558167095 -1.3301300879596063
-92.10142143209853 -85.50861579850479 -1.3209040279539674
-90.82635328131401 -85.81912648438704 -1.3102681785314925
-94.20066311008198 -84.4637292314469 -1.388089464439162
-93.2383566005806 -84.26191734996061 -1.3823334145898616
-92.39891998344655 -84.32618796914792 -1.369472485458726
-92.75087737457888 -84.86402825023558 -1.365175260979363
-92.84524158755012 -84.6371427720223 -1.3794658021631632
-92.4828446713278 -84.70549920775113 -1.3735251580917307
-108.1923872652504 -79.21482402632851 -1.5452320191926971
-108.01721638209864 -80.20741048257351 -1.5432143169129011
-86.08616809018869 -86.40882518085307 -1.2016680808367708
-85.52927465868734 -85.64992045869396 -1.1932754224989994
-107.9983379338383 -79.4685420960799 -1.5456616664926384
-107.52511516972761 -79.90305616967285 -1.5411266387377602
-106.80000998949144 -80.14836998180535 -1.5326216324911148
-106.10459370593799 -80.18935231501717 -1.5235424531488002
-105.49901133338676 -80.38750520358688 -1.5155828769796895
-104.84030827965624 -80.6169883986557 -1.506915719165879
-104.13727706967035 -80.76272530756928 -1.497274637956076
-103.5759208814329 -80.86289741731966 -1.4894027411979012
-102.93522605809098 -81.10667696653856 -1.4804073467266974
-102.3316133118226 -81.12538281429894 -1.4717520012804504
-101.69818578015305 -81.49838013118718 -1.4627687972898464
-101.10638946051125 -81.40127146314369 -1.4539735230969304
-100.5491924475502 -81.70221881347773 -1.4459831068800901
-99.85424256225741 -81.82294344483924 -1.4377901593889428
-99.31009029249637 -81.82877405014301 -1.4304767746758522
-91.7505160721277 -83.85300543500968 -1.3131703014004508
-91.51435476392437 -84.2014397938997 -1.30820056494908
-91.0537638290279 -84.24736077031427 -1.2981993034574533
-90.56091488453396 -84.4472194108299 -1.2899998404088877
-90.03711168405384 -84.51801916005377 -1.2812040531456814
-89.5138708907593 -84.65999523055373 -1.2723857862186967
-89.01289227123549 -84.7507069937722 -1.2638041177795765
-88.51365064794832 -84.93793973190893 -1.2551659340861623
-88.05298979904441 -85.230415631053 -1.2471401441203183
-87.52176976729298 -85.2445866572514 -1.2377186267347535
-87.07136652643524 -85.40631677206635 -1.2293707461856436
-86.61593228418928 -85.6375831184423 -1.2206867053045203
-86.14247567359503 -85.66930690654561 -1.2117624656191202
-85.73048255426895 -85.9335255338212 -1.2031540402280658
-85.35438459441077 -85.70292213876704 -1.1947797866188232
-99.03374639748957 -81.75508437594455 -1.437866296675157
-98.8890460989261 -81.96142633990091 -1.4260218556268314
-98.27028687034259 -82.11972002730879 -1.4192818219634513
-97.5487655910872 -82.26118581537665 -1.411219502431252
-96.68076653455294 -82.27719975440756 -1.4011408541599124
-96.00502758389955 -82.56899954978252 -1.3937065493171326
-95.30232250312064 -82.57708366226777 -1.3866488418303047
-93.34389502315977 -83.32236734214352 -1.3571480770677657
-93.18744879887404 -83.17224920039543 -1.3500978893126796
-92.84985713562106 -83.52949702150936 -1.3415770873307213
-92.5143451486924 -83.67575855697454 -1.3332577973313195
-92.16195595983125 -83.82225943558919 -1.3242350823701088
-91.90323232861475 -83.91677939257708 -1.31731585036804
-90.45233387513679 -84.06699508121359 -1.3049241356781782
-94.2014041784028 -82.77876221416965 -1.3830332538060146
-92.99904391391603 -82.83994433962093 -1.3758323285931593
-92.44912460723174 -83.00919132003966 -1.3677818761940899
-92.66814768240229 -83.09358484204051 -1.3601747752579878
-108.48239030454917 -77.5887615185943 -1.549547558616163
-108.30489230388267 -78.17208574893209 -1.5465319481363977
-85.19948182439066 -84.58692559890245 -1.1876734900210055
-84.79821950120021 -84.26693482621967 -1.181391698148705
-108.25260493472707 -77.60350999058996 -1.549312900450345
-107.82609021776865 -78.09976136781845 -1.5445377649655616
-107.1138359279335 -78.36107400000493 -1.5362044203972214
-106.39245312114348 -78.46270673785705 -1.5267849169137415
-105.76085140638536 -78.54654276488522 -1.5184026608740533
-105.15108270034962 -78.88527976449467 -1.510316330988895
-104.54819012754487 -78.97081779882342 -1.5019741211174524
-103.87133778558102 -79.17313908143569 -1.4925345716100151
-103.28779337321245 -79.27939048126629 -1.4842698187738417
-102.68476815411165 -79.36279012110916 -1.4756466994623028
-102.06127250045627 -79.47607523879904 -1.4666038440085984
-101.50737094316341 -79.7211405829097 -1.4585493225619222
-100.89280378408543 -79.7931002290268 -1.4495110796078947
-100.3085845254327 -79.9456567950456 -1.441038788919985
-99.65964076253778 -80.21541533494873 -1.4338400089458334
-98.88494990410855 -80.21298437873762 -1.4235478265504975
-98.3320501144314 -79.73007919873855 -1.4167065936589127
-91.58248354826773 -82.17580984024855 -1.3103866392031673
-91.11068540475206 -82.29477933157979 -1.3011797893642338
-90.79039602672005 -82.55188555332602 -1.2929689663181965
-90.25833780435251 -82.69222900484087 -1.2840280303698801
-89.76205374453369 -82.83596205748056 -1.2757260884982282
-89.23951863952921 -82.99746201871035 -1.2670829993549195
-88.74503467300434 -83.17583680444216 -1.2588337080958918
-88.25181450914455 -83.43949107096087 -1.2504357434243814
-87.7379105649564 -83.50780287647974 -1.241527937666204
-87.22871218449065 -83.64353738556368 -1.2326480659595775
-86.76384546752459 -83.7607343371837 -1.22443351810967
-86.24299415921944 -83.8624196379489 -1.2150005315155714
-85.80046049806317 -84.0551248687613 -1.2066769622887508
-85.3746072655739 -84.29139306818007 -1.198513771881674
-84.95749542363127 -84.42782503856027 -1.1895976550483462
-84.53665044868184 -84.17498031643369 -1.1812369900299513
-98.79371382695527 -80.10823024507052 -1.432483649974759
-98.60904790109855 -80.67008370572168 -1.4211080708767314
-98.04860053891566 -80.44342377201292 -1.4144442694333292
-97.28826019323617 -80.54735805320166 -1.405829082517243
-96.55805238594233 -80.76991543848156 -1.397696342431777
-95.7586395852579 -80.9059266181783 -1.3885470497894248
-94.99319187339911 -80.93339623263317 -1.3807635376446594
-93.09024669896323 -81.46782057646722 -1.3522778002634772
-92.95951663042928 -81.54627607804142 -1.3451682350864955
-92.59218080775518 -81.80755785923759 -1.3362762077965704
-92.23948733585728 -81.87000276533487 -1.3274198770634185
-91.90690308750402 -81.98691620169679 -1.3190082134417211
-91.75712049163373 -82.51100820939456 -1.3147592948023594
-90.20947345772531 -82.43500822601524 -1.2999798472534416
-93.98803390786368 -81.22647728387477 -1.377605347904842
-92.98423414838325 -81.16424004776844 -1.370731584377956
-92.45050375080038 -81.47083396241764 -1.3634638446206684
-92.52241436491822 -81.55801998091765 -1.35634122650571
-108.73911005091446 -75.95806648978109 -1.5535476303580382
-108.54050417633013 -76.44741293559068 -1.5502737917772906
-108.24014918806074 -76.90618559145263 -1.5454132505716123
-84.43648157343759 -83.19217301431819 -1.1756878948115312
-83.94177914327985 -82.81916693203203 -1.1674028356889807
-108.50067798497888 -75.75824848891267 -1.5527359504659937
-108.10404806116638 -76.27867561062607 -1.5481592795053385
-107.5423860225569 -76.67554362828986 -1.5411455976105826
-106.72278081001247 -76.73009926271034 -1.5305765660868447
-106.13791416706543 -76.87088325946645 -1.5228328967378153
-105.47426028681679 -76.92308564173766 -1.5137713894367855
-104.87058597726089 -77.22090899264138 -1.5054580256401318
-104.27047348163906 -77.36126595218015 -1.4970655995040958
-103.61691101672545 -77.43565428831411 -1.487788672771299
-103.05037636965714 -77.669500986869 -1.4797866683840546
-102.49858212077103 -77.74523065537979 -1.4717104506269376
-101.79580616283474 -77.84817150171347 -1.4612747234390668
-101.23551933911274 -78.11656527875854 -1.4532146137139956
-100.66219336695336 -78.01142736594988 -1.4446908943438812
-100.08747905034957 -78.38926822933382 -1.4364826493085654
-99.20264885000287 -78.40533261961625 -1.426569657486319
-98.61581141812485 -78.68833690542164 -1.4184649767842568
-98.0318689726624 -78.51453721616538 -1.4116342290818744
-91.54783259906628 -80.43287294243876 -1.3110319106980277
-91.35493384962216 -80.66108419081013 -1.305842311233022
-90.92591782240073 -80.77166591717898 -1.2977113108463372
-90.55313828475984 -81.00397947678519 -1.2881177610471026
-90.0862672771866 -81.02489099608549 -1.2803310046480307
-89.57465109648159 -81.16159671262561 -1.2717594428149348
-89.0082451860988 -81.33995510709445 -1.2622625003953891
-88.41616249104716 -81.33430075653096 -1.2523675132655019
-87.95826722201392 -81.6778037274972 -1.2449374688825918
-87.42920420248522 -81.86516670858583 -1.235963869825329
-86.98542272516617 -81.99756942418777 -1.2282871565954439
-86.49369657154156 -82.23280655609454 -1.2197230999773394
-85.96611797061506 -82.32156234530416 -1.210444549618083
-85.50634462987604 -82.47669146084804 -1.2022434499494565
-85.01252752110989 -82.43196577836565 -1.193206229266516
-84.55624379949492 -82.58718593121694 -1.1845998919612
-84.11074002089794 -82.91840332864935 -1.1755233998295218
-83.79238538530944 -82.86343544944452 -1.1688888905064456
-98.46194819695033 -78.55867077616307 -1.4279610525495705
-97.76387751638667 -79.00027476398691 -1.4091972534945036
-97.10247841835005 -79.1107524799551 -1.4017607195750124
-96.33850951766517 -79.10181572939064 -1.3929700817286397
-95.53720724893321 -79.31832968231423 -1.3836705440507389
-94.70112986153926 -79.32260469970817 -1.3752823740242996
-92.88322084916372 -79.84860948922906 -1.3478905714873561
-92.74139780715988 -80.03887859247851 -1.3402557462365008
-92.35064151285992 -80.15778174381076 -1.331456123274927
-92.01810101026143 -80.27938156645554 -1.323033467395631
-91.73374589478831 -80.46619212115318 -1.315682013923653
-89.97208656103763 -80.86843925697318 -1.2948924005566318
-93.87034409527725 -79.64350748145017 -1.3723247206501594
-92.97891660595863 -79.5345716025125 -1.3658757943371116
-92.41550302163914 -79.76331442248684 -1.3577933480888458
-92.36704512600562 -79.65807277135715 -1.351655372053248
-108.93873475968346 -73.94515090625106 -1.5570989337570653
-108.77971427669598 -74.83241699009457 -1.5540336897365592
-108.42338196241406 -75.31867053185923 -1.548923611590475
-83.4950923725065 -81.59126314726673 -1.1602426815998308
-83.05520419994998 -81.48957594074632 -1.1545440767575974
-108.40361324424445 -74.56668875082835 -1.551777179172456
-107.86342195481689 -74.81853192127915 -1.5450342786020985
-107.13200391246568 -74.7864790792905 -1.5353633879807216
-106.44965774537904 -75.03951571931566 -1.5263168112687078
-105.88387253665667 -75.21259784654897 -1.518574048725766
-105.16904070774787 -75.23057601020474 -1.508509141407418
-104.62363076394648 -75.52679795255173 -1.500936902882571
-103.90969929070123 -75.70694105633305 -1.4908603710138046
-103.38610476388247 -75.83909472519525 -1.483353782969969
-102.74369170479252 -75.88362512619345 -1.4737718537019966
-102.18608369262581 -76.11936428576104 -1.465619559734262
-101.59086213210966 -76.24851858229069 -1.4569489763352896
-101.00666721014326 -76.42412913317554 -1.4484280058712031
-100.42545612286054 -76.49578369761063 -1.4396353252434262
-99.85167133572912 -76.78348174185017 -1.4310377528282747
-98.96423587028848 -76.7493401535635 -1.4219595881870228
-98.38641025296062 -77.06827603629498 -1.4137887753603149
-97.68339542989095 -77.0767925523353 -1.405741013171634
-91.3646064407766 -78.71982658950874 -1.3078192270041313
-91.1020399864755 -78.99200348548894 -1.3008957740133882
-90.48491249625377 -79.09331382839277 -1.2908676130986538
-90.37898715781705 -79.294624377393 -1.2833728074859527
-89.89177063821333 -79.44820193226676 -1.2756825594298526
-89.31833228722981 -79.68467930419473 -1.2665770393490048
-88.77080915800796 -79.65898865328921 -1.2574317847075174
-88.2540072395595 -79.82808430908905 -1.2488023233000143
-87.76339722302752 -79.94926941705734 -1.2406295655811994
-87.21428902353183 -80.21304463405022 -1.231697877876801
-86.70508668491533 -80.35452250533932 -1.2231937345756747
-86.18144805083035 -80.55639521584189 -1.214165552697343
-85.65368768572047 -80.66068644107196 -1.2050180496574356
-85.21990312717334 -80.72033732610089 -1.1974235198575511
-84.6554028457448 -80.99316074665609 -1.1874245256643752
-84.24335992121135 -81.13401554651283 -1.1798543426043409
-83.76974577859909 -81.1767690485049 -1.1710625418853782
-83.35922625565044 -81.4536321628948 -1.163012769515592
-82.90607164680077 -81.15547042853319 -1.1545857764924004
-98.11108638204082 -76.77582669488436 -1.4228035717534928
-97.3464880674498 -77.42749569474063 -1.4023903701378095
-96.77855514720338 -77.32023851223175 -1.3958320160963686
-96.04220560891144 -77.4091519076324 -1.3873064752583375
-95.32980417429705 -77.60273417205292 -1.3787512528064598
-94.39560489076806 -77.77614891960809 -1.3695554820274007
-93.49953091154204 -77.19192164332065 -1.3635019091417755
-92.68120732093288 -78.21946560496697 -1.344000970314251
-92.53508004116672 -78.40713510472747 -1.3355427081355284
-92.1439761918437 -78.61222421118086 -1.3272545871774895
-91.7577002140598 -78.54375484007791 -1.318106701583178
-91.5401176809376 -78.81384367724738 -1.3123264357880138
-89.52731562565346 -79.033515902424 -1.2894149986363033
-93.61045692172307 -78.61030983281569 -1.3681417411242318
-92.93842306872415 -77.90688172081232 -1.3608487893357417
-92.41252137172661 -78.07880567449068 -1.3527516554324455
-92.29848652102383 -78.51994301524657 -1.3487503433414967
-109.30717280841756 -72.18989273120667 -1.5611018845397644
-108.92026404045895 -72.88555914762526 -1.5573026776553767
-108.68057408634245 -73.55836826612324 -1.5530417288676766
-82.41390637875587 -80.05725109575027 -1.146462256980647
-82.18363048804379 -79.87743961604758 -1.1403434657923637
-108.52117938522711 -72.76100892501857 -1.5531115930831034
-108.08969386232681 -72.9794049584282 -1.5475201495663014
-107.444341559199 -73.17563391680731 -1.5389914334192332
-106.85628899945662 -73.26209073390237 -1.531088559053887
-106.41992261777341 -73.49477814952922 -1.5251854296833498
-105.58308883913989 -73.82819397596384 -1.5135782661992292
-104.92335744281604 -73.76030020865265 -1.504144556594634
-104.3074181271195 -73.85197579132975 -1.4953481004913673
-103.75009755721679 -73.91751031170021 -1.4872019898158588
-103.17336750363702 -74.15499591071749 -1.4787038910499368
-102.5261471077535 -74.31846147651575 -1.4691782530953847
-101.91958804176176 -74.41999156824969 -1.4602322696023111
-101.35958802522279 -74.70718528029397 -1.4519541180447848
-100.81247258935869 -74.67686087672611 -1.4433166023344903
-100.22651800349273 -74.94296257804851 -1.434465477952085
-99.67158907437936 -75.17053446396852 -1.4261116622571757
-98.791795188146 -75.18148747613849 -1.4178669548584322
-98.1167435124303 -75.39840405809458 -1.4085365655118525
-97.33056639551972 -75.60790814272085 -1.3999302763327126
-96.80800492891831 -75.28848224525221 -1.393818073303699
-91.18818371855826 -76.31833446960444 -1.3066427304726291
-91.1441529857688 -77.11897830686914 -1.3040292749136337
-90.83466964931499 -77.45888069992678 -1.2954791157242234
-90.37050724909895 -77.50203737740378 -1.2873208337311828
-90.11550170556822 -77.61220011943549 -1.2793453747325505
-89.67739887438107 -77.83012919973714 -1.2701549203317697
-89.1002601143829 -77.81451154342665 -1.260775632199038
-88.59762087257823 -78.12033908961648 -1.253084616869537
-88.01661163180913 -78.22936138742497 -1.2437816847311003
-87.47627601471983 -78.30103946830675 -1.2349080684740374
-86.92027308032469 -78.59374661749034 -1.2257459219799973
-86.40153440775966 -78.75796439464601 -1.2172762674063446
-85.90190858733435 -78.830955350427 -1.208986754829951
-85.421590999274 -78.90581243208335 -1.2008312804194698
-84.94737816964499 -79.47680599566786 -1.1927206227360188
-84.27427282751896 -79.3289335524687 -1.1809723792713447
-83.97661698775211 -79.53534305898825 -1.1757079802515633
-83.4170724260516 -79.638661990729 -1.165588892799296
-82.97783861111652 -79.72666248582348 -1.1574348555540985
-82.59737765755544 -79.84985617444691 -1.1502532738000895
-97.64375550346239 -75.1844665821551 -1.418008709434698
-96.48820190621943 -75.73250602223456 -1.3907639383750037
-95.76693469575731 -75.84880504878332 -1.3832061662862174
-95.09216654115984 -76.01030415651354 -1.3735964368185138
-94.0103889712195 -76.07641672639247 -1.363210052356663
-93.05671587305227 -76.06145889922786 -1.3570894995287333
-92.27258588856513 -76.16519731766357 -1.3458706137370355
-92.5111512720779 -76.51642708874503 -1.3395401656215808
-92.32417761541836 -76.76082544802092 -1.3306427923407216
-91.7403148600824 -76.75469229582293 -1.321164336425926
-91.46501131470326 -76.99952741198794 -1.3132728767686837
-91.3565171257311 -77.38763481725577 -1.309404406336984
-89.04153636435767 -77.58833184346825 -1.2855585286776845
-89.10818055379765 -77.13106599910203 -1.2813106806385088
-96.67394707421343 -74.70420777040705 -1.4167195678237432
-92.90928620071404 -76.1553553817847 -1.361923770488581
-92.63422963271279 -76.40516353338153 -1.3575483388484089
-92.40803232707015 -76.79767775164468 -1.349921586296979
-88.07093027226797 -77.22483004135198 -1.2831829193201456
-109.50957079639427 -70.2438399710176 -1.56329621352597
-109.12538996574985 -70.98105702204562 -1.5599563433534596
-108.51349014300017 -71.00958355790121 -1.5525724268465348
-81.99733632622025 -78.20490418230041 -1.140491544890989
-81.73360285148712 -78.44463169618997 -1.1350188990731316
-81.40075550329331 -78.35878444152166 -1.1272688008422906
-108.29605719112882 -71.36372985105797 -1.5497740038551122
-107.72846952565138 -71.34096793844324 -1.542134634558287
-107.09096319061821 -71.4080418854609 -1.533521444665501
-106.47464330162092 -71.51036651420446 -1.5249546577203954
-105.9576583097713 -71.26093257234821 -1.517463904851983
-105.17698046986358 -72.47152540171453 -1.5069973481243513
-104.61215192227195 -71.99383853583649 -1.498445720545271
-104.050339453267 -72.1728393990816 -1.490172731893494
-103.54352469698779 -72.32015698835917 -1.4826376434386903
-102.87596927369508 -72.49270244691073 -1.4727747201345276
-102.27579195804712 -72.54094638766767 -1.4635346621178744
-101.75181190055147 -72.76186569496672 -1.4555386725836503
-101.21615405896026 -72.87431930789734 -1.4472334005286474
-100.60867314202422 -73.06137793205161 -1.4379860664880608
-100.06091059192286 -73.30228240867638 -1.4297934924841131
-99.56396360758372 -73.3743887289461 -1.4215647836016143
-98.42312911440582 -73.52399620402514 -1.4125354712608083
-97.89067599795695 -73.75562374725615 -1.4040413558035714
-97.11455044591663 -73.87260150673764 -1.3955171712256873
-96.53202266876605 -73.90063916211956 -1.3890943023196765
-91.09079455895551 -75.62759237472409 -1.3046828258102354
-90.86523095448705 -75.43543432240065 -1.2992924142645834
-90.56662417027142 -75.68917886185952 -1.2907456148388916
-90.12770485874732 -75.80925322232187 -1.282957945929263
-89.92160385714021 -76.04196089862576 -1.2749672350172234
-89.50158360529002 -76.06979256184927 -1.2648172188425653
-88.95861080507301 -76.32648003902666 -1.2566459351169639
-88.36724664645612 -76.50377031417779 -1.2472365798638991
-87.84453664709949 -76.64487805901463 -1.2389728027154099
-87.31390096022022 -76.74341332464999 -1.230586683223489
-86.72666388186518 -76.88739059158877 -1.2213226167086397
-86.22079478383766 -76.93335169740904 -1.213028164434172
-85.69185334823685 -77.27515114245872 -1.2045005403935996
-85.2056141919312 -77.40049140616853 -1.1965506095564733
-84.6924239242049 -77.38083879689883 -1.1879705524846076
-83.9650111350202 -77.30916550752295 -1.1755086372893675
-83.55404901434682 -77.74012088698461 -1.1684649212801055
-83.12521953039605 -77.9508349653446 -1.1609848377512368
-82.64077669441103 -78.17364957172197 -1.1522040353226384
-82.25845214663086 -78.13000006697449 -1.14523391507762
-97.28022775195025 -73.56339228177471 -1.412923145501466
-95.99017645240356 -74.03644563450821 -1.3848625588999848
-95.1767708357236 -74.23076973726113 -1.3765269251064391
-94.86239193500404 -74.38189051350625 -1.3692914391650814
-93.82557433888671 -74.53120019989761 -1.3585822153104126
-92.92261008913586 -74.51285292552961 -1.3519369873250788
-92.20887989001949 -74.85396690548326 -1.3423069596032065
-92.37546960488352 -74.95281835312153 -1.3347648858248242
-92.10161615694155 -74.97414118176985 -1.325652194259028
-91.34754214714378 -75.16173837149886 -1.3170335650699414
-91.06320200927593 -75.46664775570974 -1.3091956876718742
-88.753376024611 -75.87557685051041 -1.2818408335155818
-88.60240259893475 -75.89912684739915 -1.2772479805410601
-96.15982721220799 -73.40806063692271 -1.4128358193285255
-92.75083426601739 -75.02650513280976 -1.3576273485798038
-92.54491757572036 -74.90190662102002 -1.3543226921416263
-87.5333979151978 -75.87925493273761 -1.278996239505957
-87.46886730081775 -75.59286733425289 -1.2763322317284762
-109.41468517304695 -69.14872749297515 -1.5622520175805172
-108.71149205863253 -69.28681379648273 -1.5546539886721904
-108.11682388912554 -69.37549920542888 -1.5467129709635619
-87.9543106267396 -74.20408274369126 -1.2334900890482865
-81.73593542086083 -76.54681863471288 -1.1365671627727365
-81.35139015523605 -76.63931808782333 -1.129690392600631
-80.93721862519362 -76.81287654492772 -1.1208789753358253
-80.79181252453951 -76.19789589544501 -1.1145188555491286
-107.87219491026119 -69.66676756334616 -1.543440920882991
-107.37033297262793 -69.63335941381487 -1.5365707599865146
-106.85260452402254 -69.83435075767659 -1.529431864590653
-106.16348652870113 -70.02351628626599 -1.5196276649205447
-105.57777016159255 -70.06724938615176 -1.5111651082838957
-105.02953663264339 -70.33313825982194 -1.503277931669813
-104.39332911526613 -70.40363363471451 -1.4937319393818327
-103.83012181079842 -70.67667318753797 -1.4854166646121265
-103.28832724619257 -70.742563606703 -1.4770857192138642
-102.72907085713432 -70.89273416780806 -1.4684442582712687
-102.16266910954654 -71.1540975007398 -1.4598190145642296
-101.57994540086553 -71.18208919948005 -1.450701396001588
-101.02015667156125 -71.1998614877726 -1.4416085906536649
-100.52322862328806 -71.76918094000786 -1.4342186755492705
-100.02963447873842 -72.1704206649428 -1.4267997881132541
-99.74167285033629 -72.51381888828814 -1.4225129579234823
-98.18592751680897 -71.991481090834 -1.4079781016761594
-97.59847892639934 -72.12310867612817 -1.39897296673189
-96.72002323034434 -72.26371833653124 -1.389063397485474
-96.2536648888255 -72.41264654581904 -1.3845249687274854
-90.6653894695455 -73.73036890482314 -1.298606001027081
-90.61277189211602 -73.77875081239151 -1.294322056264326
-90.29452275544789 -73.97921555887497 -1.2859691448485215
-89.8724539715108 -74.29304699571864 -1.2788192235248108
-89.42672604088655 -74.38824960224294 -1.2730338833752433
-89.31620619957313 -75.23019054893328 -1.259619137922409
-88.76377595387079 -75.04172679198052 -1.2510775058517962
-88.22781199541194 -74.8249804883004 -1.2423832477255694
-87.65744390492773 -74.90148190224372 -1.2335525158429024
-87.11910471548728 -74.97521793808858 -1.2250857934109312
-86.60335523821871 -75.23955237323968 -1.2171078029811102
-86.0219970517418 -75.5037525102142 -1.2081548229409549
-85.45981410852889 -75.55340420398647 -1.1991680169050551
-84.920140670231 -75.75890655675562 -1.1906227218978778
-84.39226064714254 -75.84635437605635 -1.1819772745048116
-83.76335432389888 -75.83287387515864 -1.1715453793556967
-83.34393465037664 -76.17478581230682 -1.16459662771148
-82.86370885848254 -76.36886697062216 -1.1564392220452115
-82.31929478392924 -76.47858712991471 -1.1470376005497769
-82.03068809942647 -76.74128286082272 -1.1417902188547675
-97.02257504091936 -71.9313767482399 -1.408368426414976
-95.5411457179555 -72.3346565742858 -1.3795802322577007
-94.81974731834467 -72.58551308789266 -1.3723119299613857
-94.53371240545475 -72.75943547097206 -1.3641726007348978
-93.97379937531724 -72.85280523992122 -1.3548429520024774
-92.88287312711824 -72.98527864031473 -1.347437519050787
-92.13197300518335 -73.17988566114695 -1.3376924245843202
-92.21598954947557 -73.26684943623904 -1.3290947521395424
-91.77085851960503 -73.41576984622084 -1.3202377146826518
-90.95581784520184 -73.6571598852952 -1.3122571092598723
-90.58888977054589 -73.6767117268992 -1.3032611503633489
-88.56071469086197 -74.32785252570967 -1.2774654783922392
-88.12026898260818 -74.29198744223744 -1.27205589275093
-95.6536182625572 -71.86327087746841 -1.4086401957798569
-86.86943440880006 -74.30627495072565 -1.2745365312993995
-86.75134910354863 -73.99916302900454 -1.2709836237415173
-109.07116716244914 -67.61059781407374 -1.5581599038135927
-108.41583275459301 -67.7007284516825 -1.5502098494361272
-107.80207790953926 -67.98654694173399 -1.5417237238517838
-107.18104557865067 -67.48375140797057 -1.5327837316611144
-102.5287981293932 -68.63704906640709 -1.4591747776459056
-102.13995785861604 -69.20362759791192 -1.4536997892278831
-101.8964254610657 -69.62166737406221 -1.4496535535494826
-87.5085339148788 -73.94324767420521 -1.2265320012230823
-87.10337186305412 -73.69353393939329 -1.2198850063513376
-86.60347385685934 -73.35005024266972 -1.2107800028214797
-86.13915955882206 -73.09200815890098 -1.2039028639820573
-82.4257732101962 -73.9207820559805 -1.1480126073280146
-81.9709904157239 -74.38988643886854 -1.1407141558942075
-81.54985245539211 -74.88574555149158 -1.1336513597896782
-81.03203756314157 -75.11939042522076 -1.1244923340532025
-80.60110044051191 -75.24747065669558 -1.1163441918880126
-80.47580714231724 -75.23060131785124 -1.111223655371792
-107.61448471826616 -68.6739733511109 -1.5394886094046818
-107.17271879973879 -68.30776658900676 -1.5331440252342587
-106.49061716761088 -68.22558318748887 -1.5231713793085047
-105.95071590156381 -68.44334516465503 -1.5153671021403778
-105.37422284977399 -68.42561466799927 -1.5066334560998964
-104.80985612190665 -68.71379760574189 -1.4983138428252272
-104.20779887788886 -68.71728367512972 -1.4889040348496039
-103.63643761620557 -68.93393337843098 -1.4801156446505594
-103.11685683549698 -69.00555250697487 -1.4719559825684885
-102.58574986421488 -69.16543620945498 -1.4637642246683984
-101.96971930138457 -69.67355970787399 -1.4546122735394778
-101.51884545489986 -70.06022503154045 -1.448003833532175
-100.81450561075006 -70.25640790742618 -1.4370856676003152
-97.84306720822585 -70.35295400216435 -1.403378065990161
-97.27211809669764 -70.40535534923242 -1.3932473674664614
-96.53399804705616 -70.58782674034678 -1.384838238940012
-95.92875999739373 -70.83200059698996 -1.3802681807123782
-93.99066574087307 -70.44278385223399 -1.3511334705200622
-91.79335122720494 -71.11955991311426 -1.3169609254463608
-90.29905116183271 -72.1800082760316 -1.2891592024941532
-90.02735399563034 -72.45133401363694 -1.2809460260051926
-89.44197643344974 -72.50150615964601 -1.2737328447366743
-89.17777570417381 -72.73178995817398 -1.2679702537745579
-88.24347569839314 -73.76796831492436 -1.2407264203246589
-87.4275645665341 -74.05342586920099 -1.2280538387393258
-87.04165561993763 -73.92894099380067 -1.2222359363251856
-86.43305731079008 -73.84351540509252 -1.2124684453133932
-85.83738769167738 -73.74109975556559 -1.2027288982556636
-85.31207584535132 -73.89062250536558 -1.19452196005071
-84.75090624656842 -74.16558240807548 -1.1859262660438608
-84.15059076262767 -74.15784324998181 -1.1762967993590503
-83.63662245387548 -74.30940965498782 -1.1681300140512494
-83.08200768880023 -74.53095494949811 -1.1592416761640656
-82.61587643038636 -74.75102256123068 -1.1517112515515775
-82.16528611819797 -75.23708296227399 -1.1442892308416208
-96.64627807917158 -70.3287694454423 -1.4033391545517673
-95.26910694984122 -70.74466019456642 -1.375606679331596
-94.46625079532315 -70.93320694897038 -1.3678393840284615
-94.17207998281512 -71.10763464629805 -1.359380079982228
-93.85661233319486 -71.36352474533398 -1.3508487627666368
-92.77732857997303 -71.42143327397022 -1.34180774040964
-92.02104990968533 -71.49036387967483 -1.3324240998287475
-92.05319142637332 -71.61774698857167 -1.3237669030616372
-91.36724524605299 -71.84021788749178 -1.31469613000002
-90.52116788375827 -71.95174614799757 -1.3066255047250876
-90.1887184192043 -72.05964305827871 -1.2976347923062344
-90.16798470057734 -71.85310997475415 -1.2924741410932505
-88.2135369561192 -72.51814980654386 -1.2719702961879926
-87.76338577868184 -72.70098516021791 -1.267013513657613
-95.11023733912515 -70.22782037440031 -1.4035657124503162
-86.39838579705386 -72.61984239205033 -1.2697596416806516
-86.19895443196012 -72.72536553902994 -1.2667364569564563
-94.29637387856455 -70.00824043575146 -1.4038821873556886
-85.3750721080257 -72.17641500794272 -1.2667526614799702
-85.33923014323031 -72.28029554978909 -1.265648385555022
-108.79243310153615 -65.97819045322441 -1.553795471159949
-108.15250643175267 -66.1908886267811 -1.5456822351559114
-107.50020792436162 -66.29238020577046 -1.5365622977761313
-106.9059761173154 -66.37496722763291 -1.5279073597513013
-106.29244159661955 -66.44087964851998 -1.5186865262770575
-105.84052286455257 -66.43558667818112 -1.5091289368843013
-105.2765984057043 -66.50210039891805 -1.5015398934338922
-104.56741850566632 -66.69560830022678 -1.4918100618240802
-104.0067405456056 -66.7942934529106 -1.482653420562564
-103.54415995995998 -67.15080823961212 -1.475457906127668
-103.06092873602304 -67.76955457678835 -1.4675306101782217
-102.80066564865282 -68.27657119914713 -1.4626545358732768
-85.71001759615633 -72.86499351606406 -1.197875838296354
-85.10678692163759 -72.49336090995033 -1.1882949728948322
-84.68221028818417 -72.42828105644345 -1.1815580261806868
-84.01493034595993 -72.58826095893913 -1.171886490077166
-83.46579863691416 -72.70897669905864 -1.1633421672306221
-83.14510921800064 -72.88890491165306 -1.1557497969921537
-82.31416745063119 -73.04269442641701 -1.1453598916120755
-81.84647373698824 -73.22261017477291 -1.1379494853380532
-81.26145872196948 -73.26547042438094 -1.128301213565825
-80.7745970981942 -73.42223887649152 -1.119945703006461
-80.29805382857084 -73.52728265842174 -1.111358274765621
-80.03267063975709 -73.40333931756979 -1.1046973540077567
-106.36121800334801 -67.23219915919506 -1.5205252424714975
-105.81902661472972 -67.25805318719459 -1.5122129627898664
-105.23664621398642 -67.35276259165573 -1.5033379500689554
-104.67289943137337 -67.47698526408512 -1.4945890393931123
-104.09181007924589 -67.69353100033229 -1.485623899996115
-103.50171680389865 -67.75428415827452 -1.4763084064475946
-103.07893232788713 -67.88910511220176 -1.4698102619019568
-102.66882915726708 -68.20417259698357 -1.4636488634343943
-97.44544941198423 -68.63789701196524 -1.3975875801022561
-96.99426622867423 -68.80730635631336 -1.3881438423250159
-96.24609878071814 -69.02048757402211 -1.380204421218111
-95.50835686387208 -68.82334544985936 -1.3747375110723616
-93.64294503040371 -69.37801114289522 -1.3453017922780044
-91.80404763236061 -69.67576792467375 -1.3165677120252834
-91.67456924959315 -70.22180358080676 -1.3146576646793833
-90.000405690344 -70.72787794966446 -1.2835377417799028
-89.73926782767704 -70.82144348801341 -1.275468619143195
-89.18552923831176 -70.83497654296045 -1.2688729333625683
-88.87267293616394 -71.01021277396036 -1.262639690711223
-85.54043936994167 -72.95775839494267 -1.196931560696448
-85.11786188402763 -72.99712462516385 -1.1901594613734363
-84.73244922603908 -73.11309441019539 -1.1841495027577449
-84.06061857880988 -73.31226327727141 -1.173700764365205
-83.64777001704873 -73.48061129985301 -1.1673300003599456
-83.11561340877336 -73.65805376103586 -1.1589716984409981
-96.21571223596526 -68.60588382724563 -1.3976641688292815
-94.92607079926893 -69.14540575549367 -1.371088671357462
-94.1002988092417 -69.30958589609469 -1.363016304934082
-93.7629562307088 -69.31166970162643 -1.3536416079849092
-93.60323312291129 -69.78917156961809 -1.3459222249229397
-92.65032299215214 -69.64368300992061 -1.3370620388264916
-91.9358743552375 -69.86643802111814 -1.3279353092627582
-91.96387199862545 -70.04976780800563 -1.321910519520065
-91.01567657598845 -70.13679587802868 -1.3096410606445787
-90.21540256805606 -70.39261239170551 -1.3025449484282356
-89.81144543309337 -70.50703160041539 -1.2931041395369003
-89.78691817134967 -70.29372750842491 -1.287164955651297
-87.96207854018056 -70.92162655874718 -1.2671431689755246
-87.55725728123312 -70.86454042596677 -1.261413948237202
-94.8640979356479 -68.68051307664633 -1.3988559706828978
-86.2099254216698 -70.89016724103952 -1.2649466570232375
-85.87640148615633 -71.08540646394012 -1.2613252102986026
-93.62474394299718 -68.45549311986292 -1.398918482291567
-84.93969518084447 -70.79202153767079 -1.262850816916895
-84.55564731413924 -70.74579259514945 -1.26033301245285
-108.93283788794658 -64.27817200709018 -1.5535126922823643
-108.5934745073118 -64.23971393158632 -1.5499968790818033
-107.87752878124218 -64.56304797396592 -1.5407610040315989
-107.23504718409333 -64.64408331374081 -1.5314337546771983
-106.69019357142881 -64.75349463720836 -1.5231145166699407
-106.11392165590179 -64.86848525927579 -1.5140233799336043
-105.74110497880704 -65.00835122063589 -1.5043644527353395
-105.1655686076038 -65.28697032241882 -1.4974293329973767
-104.53023666331434 -65.74638134035315 -1.4894594015467977
-104.16469709528391 -66.16695664299172 -1.4835260857223966
-103.4634366168351 -65.85933765675355 -1.4731390260663828
-84.75441084579614 -71.05686578043891 -1.1819674906991746
-84.85015054384593 -71.43571608487261 -1.1821182786710256
-83.85707839839314 -71.694057700442 -1.1671674130488245
-83.36976467075415 -71.63064830342594 -1.159448212596228
-83.07876834601737 -71.37896383151418 -1.1510090674523945
-82.22481203310889 -71.25694756021288 -1.1413199085679189
-81.58384331323721 -71.67192455782504 -1.132093198698811
-81.04991331885907 -71.7360614267712 -1.1237080759846791
-80.51174105049466 -71.76743981002295 -1.1149338468735417
-80.00872217854854 -71.95145592745791 -1.1063856045496412
-79.77547023413896 -72.05909883206425 -1.1003237776823505
-97.06513314029594 -67.01219948744689 -1.3919970777792092
-96.73342984914689 -67.19519129993724 -1.3831491244295688
-95.8874108009501 -67.35172184729421 -1.374900726393402
-93.42325590131543 -67.18350878921783 -1.3428459135630804
-93.41359643082595 -67.89386404687515 -1.3405959068792261
-92.88211943354673 -67.51465717272339 -1.333644575231226
-91.67623660992349 -68.43775411382954 -1.313616604430812
-91.27107874699712 -68.41797395032035 -1.3083770435082034
-89.6410316388308 -69.00095298294002 -1.2789721086676584
-89.49560998237051 -69.05007890318633 -1.2707427575271166
-88.90505928120317 -69.17356105374675 -1.2636921834038424
-88.47990702984583 -69.30217283027832 -1.2573368227446233
-95.85625595908718 -67.05520291856635 -1.3931373096735253
-95.02786266563 -66.64756609531027 -1.368505083484088
-94.58346835549273 -67.60413006631879 -1.3665390330234422
-93.71080972280325 -67.59647275350414 -1.3574594325309595
-93.45978112971636 -67.77066628863474 -1.3488573391456236
-92.44649723877642 -68.08940624216862 -1.3315201383397963
-91.8418416907108 -68.1532430806362 -1.322907984185423
-91.82226666284305 -68.57415564107818 -1.3184741434122305
-90.70962211271035 -68.54544104285549 -1.304737564341419
-89.78617925466723 -68.70521215706842 -1.2963403087895335
-89.41156242292817 -68.77687852330978 -1.2877851933623743
-89.45781957701745 -68.9545155102094 -1.282601908046801
-87.4818329675149 -69.21403439470916 -1.2616708652021233
-87.15511570320723 -69.41548722094588 -1.2568511360550376
-94.42713155943532 -66.97957072287066 -1.3939134272503535
-85.8840765475279 -69.22232797774674 -1.2598938949577105
-85.42938915992201 -69.31871332198425 -1.2556545293123724
-92.65660417480282 -66.42675827822612 -1.394550882890823
-92.9960744807263 -66.91458618440467 -1.3939939663235663
-84.30647776446764 -69.29087337286866 -1.2582504056939836
-84.1314533277787 -69.49728367263904 -1.2558598282505553
-92.16094022076929 -66.27304944217371 -1.3941520285051126
-91.8865991627612 -66.56246638568105 -1.393941959711364
-83.20432588375085 -68.92982331274469 -1.2560121081776368
-83.03091247171929 -69.23395408408606 -1.2552872613918864
-108.74979011560403 -63.10334244446518 -1.5498205709854584
-108.22749660568047 -62.569704920076525 -1.5439216379352505
-107.5446350249962 -62.67277270308699 -1.5343211625261892
-107.04789646044378 -62.9773865255143 -1.5267170688574563
-106.55188067759327 -63.22314661566348 -1.5186335613717987
-106.06998815067031 -63.57188302993258 -1.5108331304458855
-105.57502680611626 -64.04314226066666 -1.5031330199221828
-105.12291259758884 -63.89877352057432 -1.4967265704004777
-93.64272261968736 -65.97943855219587 -1.3074252085931133
-82.86087884808795 -70.30264397997466 -1.1497817692021546
-81.99674558252495 -70.45159915015088 -1.1357990096747672
-81.51375658388909 -70.30014329189989 -1.1279372948921542
-80.8651812522425 -70.06931295893382 -1.118169609716826
-80.32431509495596 -70.14525773179945 -1.1103312839204484
-79.76312599883252 -70.45264633144885 -1.10170510176893
-79.54593812335071 -70.61810318438108 -1.0966118207061264
-96.82024123086256 -65.37247844714676 -1.3870168780884973
-96.50082639107337 -65.52159647429735 -1.3782665356990293
-95.5820902528525 -65.7409623556503 -1.3701751986706932
-93.24942997686169 -66.04813173574526 -1.3396764850477152
-93.23537218279786 -66.27937498405711 -1.336040141737388
-92.51452479342939 -66.22214404708315 -1.3277114938793264
