# .PCD v0.7 - Point Cloud Data file format
VERSION 0.7
FIELDS x y z
SIZE 4 4 4
TYPE F F F
COUNT 1 1 1
WIDTH 810
HEIGHT 1
VIEWPOINT 0 0 0 1 0 0 0
POINTS 810
DATA ascii
-115.28899300529953 -130.44244363800127 -1.7380919645968587
-114.66145289761354 -130.71050063350813 -1.7320576920630888
-116.64510995107896 -130.52506758233474 -1.7448710744707974
-116.01705148439598 -130.41335771880932 -1.742541552313025
-127.96838010870998 -128.85025788157327 -1.7306781405081915
-106.97060176104753 -130.1685956400535 -1.6709763943491596
-127.18658883350433 -129.03836515772 -1.7311163110299839
-125.81200254809983 -129.06329106417002 -1.7297831793634288
-124.61199937813348 -129.1169439330939 -1.728449120936084
-111.12557071013615 -129.58356981918922 -1.6901570384673363
-109.95913507238333 -129.71225812949908 -1.685923079772686
-108.36176487283016 -129.80655303756697 -1.6787596441183819
-107.36223863283274 -129.95496124509148 -1.6736462257627898
-122.49356000017497 -128.89434825302664 -1.7256252637576002
-120.84850834670846 -129.09797180256385 -1.725504481798038
-112.84764565027598 -129.656480964741 -1.701157458440066
-111.65037747369092 -129.50924611348375 -1.693579367346048
-120.24458677627388 -128.96348395138054 -1.7297319469623509
-113.39901525595947 -129.30071191021437 -1.713401135020496
-113.24816710394235 -129.33644111588742 -1.7091048455682134
-119.72224331938392 -129.11193113749164 -1.7342342897537175
-118.94735579405278 -128.93257628451144 -1.7357155098383656
-113.8689759792086 -129.24819430747718 -1.7203448457817787
-118.03377058525554 -128.95768685103442 -1.7386018127557146
-116.91780091755219 -128.78422381037115 -1.7389877728243508
-115.19758203617543 -128.82305663592837 -1.7334809491350291
-114.36892032630091 -128.9847365403139 -1.7261806594792803
-116.17031645614158 -129.3558284977266 -1.7400577749331618
-115.85434888448266 -129.5228044901998 -1.7393850502990595
-128.02144193794632 -126.6584697316255 -1.7254113435171392
-128.00433347654888 -127.63733968872691 -1.7277613690513869
-106.20196872566031 -128.39028447179462 -1.6646422570290265
-127.24252361021067 -127.26408150126078 -1.7267981173526863
-125.56059006880669 -127.37007642300021 -1.7251220570704993
-123.59353012228325 -127.37267481360912 -1.7215370081800025
-122.62610306816909 -127.12184536317979 -1.719072440040183
-110.74647665828188 -128.02771223790927 -1.6854416414270545
-109.66342741525827 -128.14494013224837 -1.681445018784689
-108.03815331867096 -128.14646719071675 -1.674284715967998
-106.82268554975022 -128.38383178601237 -1.6685785713833452
-123.1344493251907 -127.9676146247536 -1.7235738798490072
-122.04548657393524 -127.43380864300282 -1.7198260017443099
-120.89338008148356 -127.4510136806942 -1.719063877587862
-112.46931732275532 -127.80952558329749 -1.6949698516543825
-111.31757354394708 -128.10156822372622 -1.6893286334723712
-119.89060569084717 -127.46789734710329 -1.724712623980819
-113.08902604676649 -127.65107241824931 -1.707497486416993
-112.94502193316393 -127.81031596761429 -1.7032906974773676
-119.31756814778018 -127.23455639169293 -1.7274487094381852
-118.57013286817993 -127.26288895083654 -1.7298478639049724
-113.59985411963046 -127.56107952866934 -1.7152522628708577
-117.63044146072133 -127.2374332512331 -1.732316787329339
-116.37423402537209 -127.24904128195246 -1.7331818597796143
-114.7961623679904 -127.3128367675134 -1.7270502175787332
-114.16466870574013 -127.67173273796135 -1.721992142591779
-127.98590187932832 -125.51117679961513 -1.722490762281346
-105.72547863317358 -127.31174123205902 -1.6604227507607519
-105.31580304459423 -126.3365983737042 -1.656634391467041
-127.78982598494541 -125.71614758020655 -1.7233323427491654
-126.91903196686145 -125.6622059840794 -1.7225058035628389
-125.19262144217718 -125.77247976827215 -1.7204397379296512
-123.68445898196568 -125.71864219030158 -1.718163063265516
-109.35884347761463 -126.52748913324373 -1.6774101528910772
-107.75613899971285 -126.5434739690728 -1.669963698716557
-106.26678108711876 -126.70673430069215 -1.663139871702524
-105.37983454637425 -126.22348962839274 -1.6574527738297786
-122.89170477278192 -126.12725949561414 -1.7182789331048611
-121.73454982476697 -125.69825701484726 -1.7156189858355804
-120.3490371636509 -125.79449088574721 -1.714592758373533
-112.3324866458303 -126.19930731011087 -1.6921627943332067
-110.83913692378557 -126.3448273394789 -1.6841968029874843
-109.93619497852933 -126.22412402546611 -1.6795719040368198
-119.35709586046772 -125.7391763572254 -1.7193759863271993
-118.85961238447011 -125.39028611856939 -1.721200981871782
-112.76338647348219 -125.81859152186755 -1.7014897942628924
-112.67758332915277 -125.95675341261041 -1.6976933024868637
-119.10703869222074 -126.33931314925881 -1.7243322622886197
-118.12784825400345 -125.59237545299757 -1.724159936782075
-113.34105683534207 -125.84481031710116 -1.7101296047999943
-117.30138447663083 -125.7819417027509 -1.727113248106328
-116.19685203161279 -125.59084213944706 -1.727255023226932
-114.37137430681882 -125.82091514670314 -1.720706394456558
-113.89156757090305 -125.86015231439293 -1.7165078297140854
-127.90537457849517 -123.97244080376979 -1.7186597694110677
-104.90367850842057 -125.25684683796293 -1.6529397981471152
-127.59756170924106 -123.7994535163529 -1.7184458248339969
-126.54224893670914 -124.01405475031105 -1.71791621814168
-124.77948134035948 -124.08651589876165 -1.7154552888372883
-123.40132921571157 -124.17052111018381 -1.7136160819386652
-108.77672095005211 -124.7935506816118 -1.6712832811663878
-107.41340634230576 -124.89121065389887 -1.6652514539090033
-105.76293871682016 -125.23030998297894 -1.6582154609016613
-104.96267747237448 -124.87933271493237 -1.65343364656699
-122.43122296678634 -124.23706653117007 -1.712459595034587
-121.61504966373346 -124.14614526052428 -1.710911015194425
-119.76165007998952 -124.19641594525638 -1.7095719244555123
-111.95424875946958 -124.57497249375645 -1.6863329750460376
-110.42378259513177 -124.8629734103039 -1.679109834209279
-109.71648518369308 -125.3240306871805 -1.6767773666369228
-118.9658522180892 -124.05031826996779 -1.7135837817228015
-118.55558504894887 -123.94940361520179 -1.7160070152000677
-112.52810549636959 -124.31500780167681 -1.6973215190227988
-112.4032346309597 -124.47624556989986 -1.69276258893654
-117.7654815657664 -124.02638130477882 -1.7187635405764798
-113.51639146593706 -123.64646641745694 -1.7094083759623289
-113.1664697299537 -124.29915214516046 -1.7060796762232278
-116.89888878603549 -124.21969467425656 -1.7217596400660629
-115.89606468511418 -123.95890402294414 -1.7214088593502783
-114.26495370283352 -124.0269527829755 -1.7162054267205202
-127.85372360471081 -122.16060502609218 -1.7140025441772755
-104.2329253184062 -123.54428931730156 -1.6468854970483309
-127.4167658564323 -122.35077595356421 -1.7146992144198065
-126.15739464136361 -122.35632082068645 -1.71315176790312
-124.5101305876893 -122.43454350678239 -1.7107507753239666
-123.08168365306184 -122.39944008284574 -1.7083865798906206
-108.47838569251216 -123.11312690324449 -1.6665418646273211
-107.02838611716872 -123.27981521741836 -1.6603807436828988
-105.45680416896978 -123.5209667688255 -1.6537461328764813
-104.44396777117274 -123.3236172776767 -1.6483724836993254
-122.05269202602557 -122.25477328881838 -1.7063834380461929
-121.13329638300301 -122.48619402551225 -1.705612211719876
-119.3292724164052 -122.548671254836 -1.7041464202798655
-111.74329684985713 -122.96617970572224 -1.6820856051285666
-109.97690822578213 -122.9031275253206 -1.6728538422726327
-109.1411485861062 -122.3923147310928 -1.6680083722151295
-118.63065127342846 -122.47372269469113 -1.7079154891060602
-118.05953782699422 -121.97316119714743 -1.7092401494492653
-112.200979034709 -122.52118732188983 -1.6910817422202753
-112.12374786026906 -122.90542380473389 -1.6879345246199957
-117.19046717269818 -122.29367569859508 -1.71314990931189
-116.2127781184042 -121.55042727620656 -1.7125464073667316
-113.33271134663775 -122.43940555133284 -1.7056920111279625
-112.77010150848753 -122.65138886890605 -1.699525388995156
-115.57251200973555 -122.29340796043282 -1.715476549635304
-113.94168816201534 -122.35761051345344 -1.7102722752142254
-127.69136852375291 -120.78071026078477 -1.7104021246113945
-103.80052619460781 -122.18523094374635 -1.642552363184947
-127.02763815890721 -120.65558749461273 -1.7098674576092516
-125.72271546437395 -120.74231076183635 -1.7081852508318869
-124.23256853445424 -120.81708031698578 -1.7059754776414089
-122.514367013525 -120.8194170216423 -1.703126572272793
-108.85417833070497 -120.74221161775326 -1.6630974047401295
-108.34549429664217 -121.53974178946753 -1.6625711411702895
-106.80512121877888 -121.47204546625048 -1.6556497491234374
-105.14983141348142 -121.71455640615366 -1.648866548288345
-104.10171500768732 -121.8256344664986 -1.6441159277933286
-121.6948482311366 -120.59086017874094 -1.701159413646691
-120.84990151328154 -120.84278917551057 -1.7004256633974904
-118.98523676646687 -120.81841062884432 -1.6986388578908
-111.28731709388092 -121.31082431168363 -1.6758220961666417
-109.8054380488271 -121.33082587025498 -1.668552016914418
-118.33632990142382 -121.02930095100186 -1.7026459558327505
-117.73016204142085 -120.71070976471341 -1.7049439182738204
-111.96659031692451 -121.10873743905128 -1.686772405813715
-111.80606880828711 -121.19822510471919 -1.6820609702396416
-116.82394481277807 -120.70634299101047 -1.7076466519416098
-115.91322197572406 -120.49253698602283 -1.7087515563476643
-113.09768076502502 -121.02421424816083 -1.7009953097850494
-112.61323653321676 -120.9348086284712 -1.695506884943841
-115.12700012756292 -120.8413995678734 -1.7101171982385241
-113.75470872194411 -120.75276256751386 -1.7053322635392556
-127.54961854943717 -119.50278652141672 -1.7068787577569522
-103.14620922633615 -120.18327982853653 -1.6354167166590818
-126.87059006441766 -119.01611524314642 -1.705291728354632
-125.3637193442292 -119.13684984760992 -1.7032635521001496
-123.70589440710954 -119.0697699530614 -1.7003753022654298
-122.15819784623456 -119.14705324295579 -1.697858935250538
-108.71182030442316 -119.96281703147453 -1.660698331901667
-107.92893723276336 -119.89934328436144 -1.65711713704163
-106.40544653191644 -119.91057624996557 -1.650583255717629
-104.92213018020682 -120.17136929583297 -1.6447036332245382
-103.55934341687869 -120.08381532456431 -1.6383107943200053
-121.4354320001889 -119.48699454418784 -1.697600489561001
-120.60617428383277 -119.23336356610764 -1.6953893615106332
-118.70289446780419 -119.20500713042597 -1.6931730659021167
-111.03839490719672 -119.65826259536982 -1.6713432762593727
-109.40767199202455 -119.71732179282182 -1.6630883727098182
-117.90217709854178 -119.31872829195585 -1.697085644009906
-117.43998159653663 -119.14247948485064 -1.6990402882113023
-111.68161948883386 -119.38834455663309 -1.6812925697486454
-111.65673011732292 -120.32922037549878 -1.6795003280307135
-116.44608029692243 -119.17071232333858 -1.7023503644622069
-115.49006276788114 -118.9660586373826 -1.7032404896397388
-112.94498954640693 -119.33675715100358 -1.6963148712377896
-112.32106406729584 -119.22612027958024 -1.690006138242421
-114.68418065404322 -118.95059937360483 -1.7029483536698449
-113.6157608876184 -119.20297286107301 -1.700411097339722
-128.0948735302507 -117.06037800278992 -1.701264706781138
-127.54595003822008 -117.74320430909569 -1.701942481955905
-102.58261865501404 -119.08784007220969 -1.631017088078937
-101.68496345144297 -118.46537576743135 -1.6261638308637074
-127.53838029080565 -116.75601800449635 -1.7007773674982563
-126.64516633385975 -117.3523587191138 -1.700566182344355
-125.0070050718342 -117.37297774250432 -1.6979178678841773
-123.49754417717783 -117.41062046122461 -1.6954790283797248
-121.89874109999978 -117.65521030076263 -1.6932434734305193
-120.94507661575608 -117.55535757959119 -1.6912659357170658
-108.48578543153636 -118.06322647184268 -1.655359651644214
-107.47743275143904 -118.27758947903048 -1.6515308125422987
-106.10086508709333 -118.351719968353 -1.6458743942586724
-104.4620379023469 -118.56258582803449 -1.6393492270759835
-102.97929559582897 -118.36392040551763 -1.6323942455932505
-101.9533151144541 -117.96244521148118 -1.6274112355578314
-119.97740518820815 -117.5940123208058 -1.6896053488063516
-118.36214468762925 -117.60107242023416 -1.6879362144217378
-111.17109980870362 -117.71277935302525 -1.670870272471368
-110.6148053009102 -117.99441957154072 -1.6650404846154052
-109.2029341233442 -118.22712239715291 -1.658777195915115
-117.54725316282789 -117.6364558858428 -1.691072332720525
-117.00522274022502 -117.47315007438877 -1.6933784912465892
-111.42789173589401 -117.81907635898327 -1.676606721322316
-116.03116578759723 -117.49765850821343 -1.6965936898627476
-114.962698333126 -117.4562252318214 -1.6976845892077321
-112.76969814303929 -117.49554883258158 -1.6908358848266989
-112.06979261668805 -117.85598450631981 -1.6853850133163417
-114.12964807145246 -117.66132638330646 -1.6976218900157993
-113.55814454911432 -117.90542421100595 -1.696452398336578
-129.4383805577517 -115.37146103379038 -1.7003944122139267
-128.6006045066746 -115.96175858617133 -1.700389578323582
-100.71522982004436 -117.23429079058107 -1.6208500070890144
-99.63117735827524 -116.87426737377187 -1.6156562995482804
-127.64271857563301 -115.51689492748719 -1.698234082997228
-126.40027634348951 -115.80240929154905 -1.6961070215121572
-124.81696783603503 -115.79345880466094 -1.6933704338012467
-123.2022819069056 -115.82325371269978 -1.6906068089784247
-121.53599088123707 -115.9114346293312 -1.6877189366461385
-120.3684096508725 -115.76475874479162 -1.685171156653961
-108.31494944331295 -116.69079897419299 -1.6514709524059537
-107.16485487001569 -116.6371881083245 -1.6464894775100394
-105.83609566373589 -116.71275394919667 -1.6411161776036354
-104.20294206674554 -116.86337684398444 -1.6346336906508896
-102.57037964713949 -116.93519275114386 -1.6278510846726573
-101.4232764013591 -116.91722099472706 -1.6234095504797046
-119.5221024221634 -115.86869452183674 -1.6839158988522336
-117.99664329344685 -115.96501804702353 -1.6824619704053128
-117.08780437077924 -115.48713724597738 -1.6834334903509807
-110.88143087212548 -116.09271181754957 -1.6657325403452539
-110.34218691820634 -116.43651011973367 -1.6602609928661856
-109.04119898096769 -116.40132364373287 -1.653882020662423
-116.60643808079219 -115.79507657644388 -1.6874699083199962
-111.18423165719798 -116.12045881358264 -1.6718546963327696
-115.64107370328908 -115.97787900718389 -1.6913645465323572
-114.33640510312148 -115.93086699408458 -1.691579761403476
-112.64277361941402 -115.8845609951602 -1.6858339399010742
-111.8136597411168 -116.15155816872418 -1.6801943351432138
-130.65305909037818 -113.74612999334296 -1.7000877992114627
-129.341851553267 -113.97738052270518 -1.6985122996428825
-128.4160026836313 -114.44282612696684 -1.6976208899964096
-100.12925898585875 -115.72455906885693 -1.6163797447359407
-99.17401404077174 -115.54812934922707 -1.6124036495129488
-97.75043773898456 -115.51382175701957 -1.6059275087938882
-127.70475368617335 -113.92924947335955 -1.694695370587146
-126.18784258689645 -114.14835952229765 -1.6916699931554022
-124.45922300170366 -114.18106962596184 -1.6886042379799664
-122.78229870963622 -114.20315807498179 -1.6854247247995253
-121.1408160151352 -114.20033959290537 -1.6822033465234676
-119.95897936781898 -114.30808994387361 -1.6802907242824636
-108.02868816844651 -114.80047997802976 -1.6458521769808325
-106.75283636668038 -114.98204263962506 -1.6409531328847633
-105.28414141391728 -115.10355985230089 -1.6352532500886148
-103.8454497113156 -115.13887926405145 -1.6294495198949115
-102.33366562602053 -115.29885582747072 -1.623569180230149
-100.7894430450442 -115.23863037468568 -1.6176706366824398
-119.1076729221077 -114.30465133161498 -1.678636260658828
-117.79333792633113 -114.4269165504992 -1.6770720966131192
-116.76703113744996 -114.03229073114973 -1.6780360325363282
-110.61886443073762 -114.51675289034215 -1.6604732771060025
-110.0137045162356 -114.69524442870616 -1.6543524570330401
-108.7533227877581 -114.79940628826472 -1.648832651213132
-116.1820902812872 -114.14394055320273 -1.681641740376545
-110.95919798644128 -114.62807709881005 -1.6671617658143831
-115.22265327526613 -114.19872492752805 -1.6849664633051409
-114.18089441241759 -114.24639705170488 -1.6853891874945686
-112.49184980305873 -114.25472797110663 -1.6803790785668729
-111.54147094699952 -114.48948112738991 -1.674508613137966
-132.0499752176342 -111.97126713490673 -1.6994595004882247
-130.70090875300426 -112.30601635911769 -1.6978601100226844
-129.13053911885788 -112.27367348123366 -1.6942834497149484
-98.72397276060704 -113.97079805547752 -1.6077312441338583
-97.2922022489391 -113.93310092818069 -1.6025512860113973
-95.85764831138462 -114.01696621049052 -1.5967745265307967
-94.69185943221245 -113.44518371236569 -1.5905895187840167
-128.28888142632212 -112.17569348204108 -1.691987738271421
-127.38811477650589 -112.35359022089537 -1.6901969053582975
-125.7687166530957 -112.44652477146074 -1.6866124985970725
-124.15621453803469 -112.53958853966424 -1.68362031532892
-122.32215807514984 -112.5170344635235 -1.6798574557465977
-120.80703303249777 -112.55498557119813 -1.676871222415032
-119.44818108218142 -112.87755899480439 -1.6750856519332764
-107.78316868073384 -113.22657371076598 -1.6408892837003037
-106.44212769638098 -113.31046056154648 -1.6357026952489475
-105.05115599808705 -113.46939498689123 -1.6305145760918938
-103.48963737955975 -113.68236060799975 -1.6247375161963837
-101.86678320231306 -113.61958027430332 -1.618074273693215
-100.41140370675991 -113.88522488024098 -1.6134497594440758
-99.35676550325142 -113.51243942807939 -1.608971160035585
-118.55066961710017 -112.7788644132421 -1.6730134320472054
-117.3217076632319 -112.79505015719738 -1.671355951432642
-116.4180411959185 -112.56190999971264 -1.6727406647217038
-110.34811923724213 -112.91837005666328 -1.6549137863233438
-109.68135326224274 -113.2876499154249 -1.6492122222587766
-108.70594454396873 -113.48296095106461 -1.6453092244639242
-115.77794584335109 -112.70692879630089 -1.6767312054727548
-110.75569745453741 -112.81648340579065 -1.662430333967203
-114.97017257241338 -112.87604284972893 -1.6800790259349552
-113.70742712860026 -112.73581893735931 -1.679245845608643
-112.06727441560274 -112.77666593321668 -1.6738224979281076
-111.35469136858967 -112.9399863111723 -1.6698428482139656
-133.37932461856636 -110.29669522352482 -1.6988374576150969
-131.85343858950327 -110.60657538327753 -1.6968686384920988
-130.28324145208015 -110.64385516906542 -1.6932673535295073
-129.11840600748215 -110.83393232780975 -1.6908508448752382
-97.95214081645871 -112.19443035605676 -1.6012296752996285
-97.00145386038815 -112.35446199103399 -1.5982418084628864
-95.32880336801388 -112.38723072271812 -1.5923937858022996
-93.92862884569331 -112.51713601705173 -1.5868267682174653
-92.61606032301167 -111.86562614972826 -1.5798630522561128
-128.2499303982502 -110.72226708080322 -1.6884281456364465
-126.96260629989911 -110.74164250409585 -1.685117763337746
-125.48025988459534 -110.74161799714174 -1.6816309672962335
-123.84138875312937 -110.880851515211 -1.678411947950377
-122.09852845585293 -111.00393843097612 -1.6751887069519202
-120.49726305154483 -110.93531917133987 -1.6716638197957174
-118.8110257045186 -111.07609815837041 -1.6685102032314343
-117.7909003970396 -110.78282149413805 -1.6655867962825353
-108.6250491449681 -111.28609338223642 -1.6394134123550521
-107.77231094388226 -111.58853036293657 -1.6367568520771207
-106.19949351569038 -111.55323837865525 -1.630487277593827
-104.73263498513012 -111.79093349392673 -1.625261362732803
-103.22310735326735 -111.92092698755873 -1.6195432667076461
-101.48657664436836 -111.85516081245525 -1.6128295939987893
-99.95381167069235 -112.09109589380604 -1.6077766424295004
-98.85000968473263 -112.18971251218247 -1.6043147166740737
-117.131196546111 -111.15546889168422 -1.665628579034239
-116.04483789903274 -111.07696120887597 -1.667505534999691
-110.0799825043483 -111.26661597314049 -1.6495145244543266
-109.45557554382626 -111.4971431201273 -1.6436275425048648
-115.08376870854156 -111.08938562476459 -1.6720967330724077
-110.57626468974738 -111.2097242435411 -1.6582022694211835
-114.38365850761683 -111.14429715524344 -1.6739037452437286
-113.42176764509666 -110.91658172068168 -1.6722573260351254
-111.8766828886816 -111.10442946839332 -1.6679749735968281
-111.18559795693544 -111.60931297154886 -1.6657056035115405
-135.59095367284863 -108.01427829085026 -1.698371453676327
-134.60299406403817 -108.61999483613701 -1.6980692271593965
-133.25222206352686 -108.76951550726804 -1.6961374011236832
-131.5791148537144 -108.76560031824908 -1.6920053039385128
-129.9759906022249 -109.0423979900123 -1.688682636066162
-128.55376892796664 -108.79553354733898 -1.6843826610843446
-97.71585343247921 -110.6255280958121 -1.5968159740076637
-96.52394787741274 -110.66013443221112 -1.592889072890988
-94.93231756139835 -110.77443855230692 -1.5876188017909338
-93.47395876857277 -110.75554461588163 -1.5825045279294858
-91.90984112118745 -110.91924774760801 -1.5765890180932591
-90.7906253679378 -110.53023442951458 -1.5710539888926283
-128.0147718256938 -109.14446273384722 -1.6838410554166099
-126.64235241254484 -109.0984303803767 -1.6800711101996972
-125.17363536502752 -109.15840837519137 -1.6790006878926744
-123.3978993182647 -109.1936163256917 -1.6728211398449373
-121.97479512531575 -109.4272492839184 -1.670532354463221
-120.19663162912748 -109.35995090991156 -1.6666235755936671
-118.49643071887634 -109.43658450771757 -1.6632141535311413
-117.14692661715343 -109.19218378057123 -1.659654039529768
-108.58848175734673 -109.7936645404653 -1.635549791888688
-107.44774381961906 -109.87410297080945 -1.6312915857954609
-105.75182447563004 -109.97181192943462 -1.6249112470344933
-104.28927658827557 -110.10120726630375 -1.619454003968792
-102.78332946031827 -110.28630459061539 -1.6139230806144227
-100.9632114193086 -110.39300432604561 -1.609669847641629
-99.73484474131578 -110.36242734058122 -1.6028772314795998
-98.54547793428931 -110.54855530727902 -1.5993826049150552
-125.12845160063246 -108.40179968743462 -1.6821511900430997
-116.53961754424155 -109.77343064042846 -1.6603569672843717
-115.7586829901551 -109.58233187507763 -1.661673884353685
-109.82922826703302 -109.6552113456401 -1.644535948739208
-109.31723028785804 -109.924329011657 -1.639031691058088
-100.53220800193411 -109.78652744909976 -1.6121205046799472
-114.72597775785493 -109.36686040685554 -1.6655667602496798
-113.70804909201932 -108.85843031238956 -1.6652865399411114
-110.95444282221564 -109.5304241113961 -1.6589687077545805
-110.35774260369085 -109.61182503650862 -1.6534531467301983
-113.07087940715597 -109.47056237603508 -1.6665102582901932
-111.77078447428339 -109.4699088275473 -1.6626231295235852
-136.92199611610602 -106.35316543487514 -1.6978024381775796
-136.00813038289792 -107.06747149505222 -1.6979676100869128
-134.44724814847734 -107.1394490784709 -1.6952513300250416
-132.78460063636285 -107.23250027781152 -1.6913394439886462
-131.20632161235713 -107.31829270614635 -1.6875870406142714
-129.56221266116742 -107.31746561039434 -1.6832918227125988
-128.16171520868022 -107.334166784858 -1.679608957433847
-97.60026492809774 -108.92694422329659 -1.5923314818202239
-96.14903934069417 -108.99575192971963 -1.587684892619468
-94.63854377058412 -109.04625694123057 -1.58276632781421
-93.15452393158276 -109.12651668417874 -1.577859499248022
-91.40538816841304 -109.22272771554452 -1.572003406725493
-90.02263253010136 -109.43276930096145 -1.5668677807278824
-88.72610378630748 -108.92510629402814 -1.560580929632962
-127.43004762990296 -107.41222211194727 -1.6778608481578658
-126.2095304701055 -107.56244737443843 -1.6749589140084788
-124.8172517855638 -107.50665613339895 -1.6741663252387462
-123.11684152814648 -107.63860169474869 -1.6678874036425588
-121.3837133797882 -107.56585052146984 -1.6640623740197233
-119.71685291338459 -107.69242769045455 -1.6608809408744745
-118.17869670453537 -107.81789418001237 -1.6579494724208494
-116.63962717855664 -107.77774958392887 -1.6544956503539936
-108.49670513028515 -108.2302298675051 -1.6312651328067467
-107.05903595045245 -108.30166608716495 -1.625883077331256
-105.54210534413532 -108.40448094947348 -1.6202222976417182
-104.01080274132732 -108.66820561334242 -1.6148768328342333
-102.43480935446033 -108.66020872685345 -1.608629847094776
-100.63041571412089 -108.66406264955666 -1.6052281059470115
-99.41732729022907 -108.75582271095791 -1.5978732176780819
-98.31055544979984 -108.93372208330112 -1.594700515634631
-124.71214295734326 -107.47638947127827 -1.6787756865430596
-116.02039511195355 -108.26505925484383 -1.6548726097798676
-115.19073945740845 -107.66498830783543 -1.6553208552316683
-109.60250987847087 -108.03853285085806 -1.6395692364086714
-109.25415528822194 -108.2761400898695 -1.6346663336549925
-100.40821135443709 -108.80562402412458 -1.6094888461305799
-114.43185555072087 -107.83071917215076 -1.659726988491562
-113.00291554114824 -107.72515059239002 -1.659951458393525
-111.15490565509101 -107.86711922421092 -1.6548256995666049
-110.09020038465914 -107.89956145791804 -1.6475400359997576
-112.47869593009351 -108.502619193137 -1.6617481537884187
-111.97888185367081 -108.35546680334939 -1.6597788432266682
-138.24434944119886 -104.68616856608897 -1.6970707889411567
-137.28444050711303 -105.3268748145511 -1.6968970863011474
-135.63847480705334 -105.38340413937337 -1.6940482969874127
-134.08560340333148 -105.43048215246903 -1.6902698244409469
-132.50079602903372 -105.60197368887248 -1.686667255754584
-130.8516331676371 -105.77573604021029 -1.682781052324738
-129.19590006975247 -105.73603908041744 -1.6782754402394975
-127.56186345107159 -105.64600880604587 -1.6736147363229514
-126.18149915756806 -105.41496226155377 -1.6691393829671315
-99.68799352761276 -106.3948262441117 -1.5925915331112217
-98.9301624779941 -106.80121835737825 -1.591234225994408
-97.40455463887554 -107.18682962709964 -1.5873651821645776
-95.89521739276958 -107.50110980715156 -1.58322609147204
-94.27187983782055 -107.42843809477219 -1.57767650245506
-92.69860035148369 -107.51614708342218 -1.5726378593400994
-91.08425757541275 -107.62642361516356 -1.5673929364747199
-89.61188541627182 -107.73223136259121 -1.5625622454926114
-88.06852442642976 -107.89338566869512 -1.5568985073952408
-86.83641367472754 -107.49696033813221 -1.5509714946430389
-126.00251561475608 -106.10471968719202 -1.6704943182871543
-124.44359145999785 -105.8535446914148 -1.6692885860117004
-122.82862985695684 -105.96893562569414 -1.6625592307801185
-121.1642283413298 -106.14377972078017 -1.6595579958351165
-119.42538648900958 -106.1591917770466 -1.6558502467240863
-117.9294633950336 -106.21953907968033 -1.6527700868977635
-116.25655653812626 -106.21536874520356 -1.6490369589298393
-108.9273513100169 -105.78523797107557 -1.626910833474624
-108.29426307640426 -106.54749927356697 -1.6260898553059404
-106.8317151154311 -106.7277282001468 -1.6209672830136312
-105.07257605804482 -106.77476735762276 -1.6143030424467595
-103.6276008778199 -106.88961733958385 -1.6089893004758298
-102.02947195621832 -106.8885466508606 -1.6026991732982707
-100.20798912728965 -107.0649758157239 -1.5998802232301674
-99.2703093000058 -107.4320617705264 -1.5939663510247146
-124.34996279759773 -106.39151718554365 -1.6749796878937095
-114.74697606171642 -106.10848580255927 -1.649875463257408
-109.4218523737104 -106.52018265057744 -1.6352626529339105
-100.2236531932018 -107.05804461207721 -1.6045147086312634
-113.86330343351474 -106.02684629107688 -1.6532433451116961
-112.53306081423756 -106.13248036258845 -1.6530938838896383
-111.05601996397667 -106.31292803571492 -1.6493119172629402
-109.87764507218125 -106.30647922569955 -1.6422503004088034
-139.43909425838444 -103.10400545857382 -1.6966778665954494
-138.60388538531998 -103.60501948381737 -1.696346492577881
-136.77249439310597 -103.68482701698552 -1.6928367929615191
-135.35347369282178 -103.81217291755117 -1.6895430347785099
-133.72254796515446 -103.8668542394536 -1.6855060279928153
-132.2085214892943 -104.04979284569364 -1.6819847833482733
-130.43244307634905 -103.9763363138816 -1.6770662120859243
-128.83991952907394 -103.99961916441771 -1.6727717258370651
-127.3104148084486 -104.13300663266814 -1.6688530131700468
-125.69016555601375 -104.34540273176539 -1.664880818996415
-124.76034979732158 -104.06036153414362 -1.6614807181910287
-99.58503256995222 -105.56796714856753 -1.590103372552771
-98.71927465344837 -105.54516891796622 -1.5872762278972226
-97.06224714966166 -105.65718477508143 -1.5822875254669393
-95.53717608883393 -105.83601875482648 -1.5778813818808375
-93.87883461351271 -105.78821504545135 -1.5723911642356645
-92.36078265211347 -105.7260619472752 -1.5672289649292013
-90.8717227885962 -106.00563552512274 -1.5629378217868204
-89.17217494917855 -106.10688927648671 -1.5574253230828707
-87.57126483317107 -106.13699289608516 -1.5520115279601685
-86.08740451288249 -106.34492704292265 -1.5468970303091365
-84.86161257413882 -105.92582177554335 -1.5410804883608207
-124.05720569886954 -104.1970895227571 -1.6638546758549326
-122.44563782459623 -104.23627847035739 -1.6567889350058471
-120.86786976087276 -104.38615186541611 -1.653875461574489
-119.22189243460585 -104.37153357098907 -1.6502234094926007
-117.6332512662155 -104.52001796214752 -1.6470901706662326
-115.96730775345328 -104.51369226183024 -1.6433453996065202
-114.89770394056711 -104.55434914404697 -1.6416815755539003
-108.78123641292751 -104.62026483458887 -1.6233740282760283
-108.0026178372612 -104.90626461264827 -1.6206350906276614
-106.3656831065232 -104.9896407838971 -1.614616948796626
-104.86461576278921 -105.08571129349468 -1.6091785458843417
-103.39697617285381 -105.25984252976953 -1.6039879374332007
-101.83902123110124 -105.32614470358175 -1.5980605306813744
-99.97845462334949 -105.41702843106215 -1.594408381154119
-114.3364363245325 -104.59155275946253 -1.644337580769179
-109.25307870861296 -104.90862952266411 -1.631076031513874
-113.44502308276655 -104.57967136745738 -1.6477438291530397
-112.4219607324903 -104.61199208858842 -1.64722780704217
-110.71779897492475 -104.60790199958427 -1.6422757654476516
-109.66760406289485 -104.61801257430989 -1.6364675093988277
-140.74121780183552 -101.32178585883321 -1.6960854506801648
-139.83849877476882 -101.87380716901633 -1.6955088312506161
-138.23530658981784 -102.0247349227043 -1.6925260976833052
-136.51063583373195 -102.00706344379984 -1.6880777907259412
-134.9195478441759 -102.14593970828497 -1.6842993448167352
-133.32633017486654 -102.19639893029638 -1.6802272956801803
-131.71074455687136 -102.31448276349768 -1.6762037755838435
-130.22740339740776 -102.36741181544038 -1.6722666869849905
-128.61635164678475 -102.39135957605168 -1.6678255978756913
-126.98897916052852 -102.5500267859608 -1.6636882604511556
-125.28396177486351 -102.53716659921972 -1.6588224326455001
-123.91898239170143 -102.35839703659526 -1.6546932870731978
-99.51089361458345 -103.59376616727829 -1.5848974858040557
-98.31964055418031 -103.94806382865085 -1.5817753994417245
-96.81679517005766 -103.88529212801835 -1.5768649507126382
-95.15573142186062 -104.0158912478033 -1.5719201698141039
-93.54129062953972 -104.18876912089854 -1.5672144015725837
-91.8648946508181 -104.17513079066697 -1.5617802818866027
-90.38859385752184 -104.35174677405735 -1.5573628959051464
-88.92480946821296 -104.41396691449502 -1.55263749034238
-87.37511307398341 -104.56082314983378 -1.547769049727551
-85.79546973269399 -104.65872827603864 -1.5426257173566524
-84.19282586483325 -104.9126827429276 -1.5370450312698063
-82.82583997264919 -104.42958270646115 -1.5310703195559576
-123.73847708019099 -102.6182593455118 -1.6589144523359811
-122.05915910278071 -102.62591383491053 -1.6513003485150772
-120.41584439255928 -102.72129621605374 -1.6480619538969363
-118.93514595311525 -102.80291716145834 -1.6450323761497203
-117.155355995717 -102.8774704151215 -1.6412014134060227
-115.54211913369642 -102.88934027254787 -1.6375918132089702
-114.5016680470693 -102.91910957259581 -1.6358937605205182
-108.61619495393307 -103.35017473010049 -1.6194728972790557
-107.68805631290613 -103.352507927273 -1.6153378723811236
-106.02845685617112 -103.47023945994657 -1.6093735177625679
-104.62802720229675 -103.68016599748425 -1.6046527201869636
-102.93803484857476 -103.7284436395756 -1.598304893092223
-101.51027591417599 -103.83571455426097 -1.592998285609451
-99.59700406079922 -103.85022089139724 -1.5897278861052646
-113.75399102970992 -102.90235280964605 -1.6387613272736732
-109.0729197429795 -103.07131587228764 -1.6260366272350684
-113.0405320049555 -103.11857923310764 -1.6420236659847722
-112.10503483995495 -102.92143941384084 -1.6403118970009343
-110.40966219679396 -102.92877974808212 -1.6354126690506121
-109.55891808464683 -103.35969476981882 -1.632538415528879
-80.8027046674439 -102.7898761054344 -1.5189899531066573
-142.087108794053 -99.64320619826314 -1.695468601895298
-140.99230981679364 -100.22247388151787 -1.6945542107944906
-139.4108490796769 -100.32541419607102 -1.691389273716874
-137.89825802520343 -100.36533889675613 -1.6875894462940355
-136.27972073768208 -100.51065333078688 -1.6837351326260592
-134.60484280348106 -100.43631825347056 -1.679133394736945
-133.03542998787813 -100.59943193685756 -1.675316974160222
-131.34704225124688 -100.58141100576945 -1.6706021117724452
-129.87342961214472 -100.90307582903375 -1.6673444253690597
-128.23208662668875 -100.84064970092938 -1.6625726584094433
-126.67541018421576 -101.03053911162327 -1.6586758869450802
-124.99217111214276 -100.92722113874473 -1.6535997922976522
-123.10532165944205 -101.10869039237157 -1.6492649314730836
-122.3933650882184 -100.94225049130984 -1.6470953030209652
-100.46930287902694 -101.81264293547343 -1.583766710315066
-99.53957255742624 -102.23487874310867 -1.5816318940761316
-98.01591864671765 -102.28825977116718 -1.5763905001258975
-96.47375510895189 -102.33176174949054 -1.571654313157428
-94.8360649884629 -102.44421607267184 -1.5667873980250602
-93.24158483741368 -102.595193420726 -1.5621058597922248
-91.78590182602707 -102.7930298140015 -1.5579712929683713
-90.07765697284692 -102.7644063441144 -1.5524015121716321
-88.56016163229606 -102.8104492972949 -1.5475649079181995
-87.00122281485875 -102.84545249356057 -1.5424725458008366
-85.45917395593587 -102.95995579535223 -1.5375699130497151
-83.9528177629991 -103.12092025073419 -1.5328678135615788
-82.26977897157846 -103.27708462960051 -1.5270396284310626
-80.99078359920645 -102.96607451342659 -1.5214902204692675
-123.44208967510465 -100.93142102152694 -1.6539378413648596
-121.8102094151522 -101.1625987181382 -1.6465154632423276
-120.14071335300433 -101.13427153896217 -1.6428454583929306
-118.56744176887783 -101.17865853363904 -1.6394904957070966
-116.93811516027532 -101.2644072447235 -1.6360327849169183
-115.28254180678681 -101.28202887081589 -1.6323049833171592
-114.17893742323815 -101.45686972657978 -1.6307280754096696
-108.36577790201105 -101.58757029020782 -1.6139184892637903
-107.27165077800873 -101.7303847694696 -1.6095243940547188
-105.89224027308465 -101.7856267140827 -1.6044888968965068
-104.21873544578882 -101.80970388628431 -1.5982647361748576
-102.83153971573795 -102.0848257709375 -1.5936782555704538
-101.2198701858629 -102.08460175750886 -1.587418086035888
-99.13667411577205 -102.253022490796 -1.584984759155582
-113.1208220932459 -101.39402235958805 -1.6338973598740936
-112.07236700545113 -101.10066164063358 -1.6334121021991892
-109.76908950368461 -101.06221403944821 -1.6265094191670821
-108.92971057686744 -101.60824668822724 -1.6217794643284107
-111.40616924452277 -101.42605407535328 -1.6334208965272612
-110.33349901664415 -101.44822312658657 -1.6301610759963423
-143.3418448807664 -97.8370981946466 -1.693151276418677
-142.64785980399913 -98.7854669904346 -1.6936948371075773
-80.04817606383412 -102.1794575478828 -1.5150167364047116
-78.80911827068938 -101.37253516062594 -1.509409308740592
-143.29838220220276 -98.0685043162477 -1.6948599305908052
-142.32127944391925 -98.44111867399073 -1.693903159428551
-140.70363841844804 -98.59862858933974 -1.690479633878688
-139.0626134345649 -98.55821768669419 -1.6861147698535297
-137.5708344406189 -98.68135829297157 -1.6825004006512052
-135.9420092514522 -98.82888399447732 -1.678580823195638
-134.17121913171414 -98.88875859380178 -1.673915187476012
-132.73364617226196 -98.92039725806661 -1.6700153619188527
-131.04816222408485 -99.08273174993842 -1.6657404851487103
-129.50000469944808 -99.02953498193354 -1.6612533017064033
-127.77489008786078 -99.31855263542934 -1.6571379870481038
-126.24365062569187 -99.15313707577224 -1.652303800446711
-124.72040512793234 -99.38069269688738 -1.6485679325238523
-123.20099967254271 -99.42000448819482 -1.6450864945536268
-121.89071128236922 -99.36234408275413 -1.6414514498574386
-100.42107861632024 -100.42258218492321 -1.5800677076187049
-99.43792170386247 -100.73103132548536 -1.5774230958344977
-97.6789368487153 -100.7139752495045 -1.5710878822332077
-96.16460768326051 -100.84811668054274 -1.566703152462756
-94.58852546017327 -100.85239898465102 -1.5617691464851455
-92.98518753087886 -100.92609773307021 -1.5569148327097788
-91.4419156730295 -100.95225674699651 -1.5520815668197205
-89.85749253754128 -101.07257920804685 -1.5473288374969063
-88.34662211338983 -101.30023550354346 -1.543067062726694
-86.68364163732294 -101.2472914223874 -1.5375442986928711
-85.16397255218678 -101.34763770023959 -1.5327633477745877
-83.56431875735015 -101.51463517528366 -1.5278146838323452
-81.98781068973476 -101.48493207209575 -1.5224609482826255
-80.39682319653039 -101.68802738962513 -1.5174080239245042
-79.01470504845172 -101.41218314439875 -1.511669730424541
-123.10469003340509 -99.28226284569944 -1.6491603703196238
-121.03540427334596 -99.44529731522809 -1.6398704643935456
-119.75835526691044 -99.53104391528836 -1.6373263827727704
-118.24962709995701 -99.58854286998763 -1.6341213277264004
-116.42233143050612 -99.50653813957108 -1.6297141165750901
-114.97597258939199 -99.71600969686718 -1.6270422479416682
-113.68221430023914 -99.64723846760084 -1.6244262191948597
-108.19544864081563 -100.13923984118696 -1.6096146448530162
-107.04294271957079 -99.96394802344383 -1.604045368350712
-105.44767576240436 -100.26446446548489 -1.598829897322263
-103.956323422485 -100.35982991317348 -1.5934768514870303
-102.34473384192965 -100.45243579038414 -1.58759630331494
-101.11661150966637 -100.50707271692472 -1.5830035372817415
-98.76518259725799 -100.50000449906074 -1.5796916511880037
-112.83519754555572 -99.73988888891304 -1.6270761928012227
-111.41983726526519 -99.67891493835839 -1.6269114110459275
-109.93138778334577 -99.77853445588492 -1.6228980062292655
-108.66834356036276 -99.8635745402711 -1.6153018233479246
-144.64788628486647 -96.2859181975061 -1.6931248603258386
-143.92256042377312 -96.83279142257496 -1.692224538245666
-78.17323148570294 -100.29491772900619 -1.5046587419046458
-77.16609227145274 -99.93421178730743 -1.5007394960837694
-144.56698448816832 -96.27970844028577 -1.6940913672809181
-143.5368133590755 -96.7160980800065 -1.692780456769647
-141.9445919418714 -96.89070483224124 -1.6894650016035044
-140.22247663212397 -96.90643998581582 -1.6850207970529718
-138.69384298774628 -96.91490488488205 -1.6810047488629083
-137.13363005203513 -97.17451283672283 -1.6775026031272255
-135.61572058453464 -97.18723371124847 -1.6733802220890275
-133.86402122075938 -97.30501635704795 -1.6688401801203034
-132.3552804971105 -97.33979672550615 -1.664718126375788
-130.79115438561226 -97.34981444113282 -1.66034883049905
-129.1437567292165 -97.38628337474398 -1.6557594552729467
-127.62885848936756 -97.55948899887328 -1.651871161676594
-125.99736001296877 -97.55644509725357 -1.6471818680738428
-124.43850950250115 -97.6358785212179 -1.6429489490534428
-123.04307767330008 -97.82670451203248 -1.6403164235835948
-121.20119760628688 -97.73440714431784 -1.635230076223009
-120.13034167880342 -97.2003537823236 -1.6313488814508739
-100.48527916850811 -98.76617724837985 -1.5760801478602935
-98.83292999607677 -98.82109707943312 -1.5705972405927655
-97.32538767387278 -99.02613021070547 -1.565421409955812
-95.70069520788411 -99.09720127116675 -1.5605020934984861
-94.18730787322352 -99.17608399109086 -1.555964860093212
-92.60686148826628 -99.26926334333906 -1.551287494577942
-91.09107142022921 -99.38220188808276 -1.5468367631730802
-89.52239248621161 -99.57810024702262 -1.5423725972884488
-87.93001763280604 -99.58057983018931 -1.5372879935001451
-86.32071306705856 -99.64928603535911 -1.5323008523909256
-84.8357497019048 -99.7052239857598 -1.5276444542090708
-83.14350835620198 -99.73851117811665 -1.5221853354838883
-81.6188928657067 -99.86980679160932 -1.5174305955061185
-80.10929036839221 -100.04539201741528 -1.5127944752302445
-78.50846299917987 -100.1227501640809 -1.507316079149164
-77.12881357741007 -99.82133239607663 -1.5017815856728287
-122.71333355618319 -97.64354754266715 -1.6433143045707785
-120.59808976194186 -98.15081785148342 -1.6351422903428
-119.47071425421522 -97.86639455039733 -1.6318207747786322
-117.87589049607074 -97.88270407925832 -1.6282748750687184
-116.32713276474875 -98.01837755380599 -1.625168274574871
-114.62623282558164 -98.06140263121976 -1.6213989529400825
-113.19480258740029 -98.00448670819907 -1.6184928625787955
-107.95630403099581 -98.2978843544442 -1.6039848313234806
-106.72224182600418 -98.34763235071442 -1.5985630077150579
-105.09203204858325 -98.55115540170796 -1.593035597048533
-103.53603680559804 -98.56211679902148 -1.5871808535348122
-102.03945770951641 -98.62891670883788 -1.5816906679341247
-101.13227892904591 -99.11778475260145 -1.579493234802783
-98.44163871530509 -98.87648728643087 -1.5742626139249072
-112.40921140079547 -98.19563671633887 -1.6211929616143743
-111.12121396750672 -98.03235959156962 -1.6201425645530931
-109.72052541945935 -98.26903266511114 -1.6169264302750008
-108.51387065494895 -98.34498131231219 -1.6104919596581928
-145.89745384253996 -94.72663011682559 -1.6929837238523633
-145.15677785419302 -95.17944777660608 -1.691829462453754
-144.14499097384027 -95.59012997299547 -1.6897592910545465
-76.51197576047849 -98.84210612713025 -1.496043203461335
-75.17294114990537 -98.41720590246291 -1.4907717047915368
-145.78994025567684 -94.50916038032771 -1.6931835268477073
-144.78968404463518 -94.97216840585995 -1.6919305229685866
-143.39701652180366 -95.29498908797078 -1.6892047300351027
-141.4828220379092 -95.25374517103663 -1.6841838339109034
-140.04942974593294 -95.3232126269418 -1.6805714842844917
-138.4127275871488 -95.29655894829608 -1.6760791866107165
-136.82914445055397 -95.51630817600477 -1.6722902601619074
-135.2851253716168 -95.58262671816836 -1.6681888757429135
-133.60671775813307 -95.57802761963833 -1.6634904001379074
-132.102282075612 -95.73930104905025 -1.659694933438564
-130.64022754649832 -95.74749690789717 -1.6555343702402898
-128.75097956716482 -95.76394186739037 -1.6501144011317799
-127.22639223127503 -95.95932865971965 -1.6462866435898988
-125.7461169559675 -95.78828296011204 -1.641584905033801
-124.15820480024115 -96.08882886291948 -1.637857342895285
-122.35585467546454 -96.00575941108897 -1.6336786020732417
-120.81472662310473 -96.21297818545429 -1.6299658332978084
-119.63818844321396 -95.97769357799956 -1.6266923541143405
-101.16518798655815 -97.06471485650951 -1.5743156498104556
-100.19210401492619 -97.25922212598091 -1.5710908113194577
-98.72902991288612 -97.31202269225322 -1.5663182885154106
-96.99041444428207 -97.48530464088024 -1.560165943928181
-95.60847439477469 -97.44808652265611 -1.5557538539373135
-94.049939670272 -97.5181937339612 -1.5510485637759528
-92.31430327386707 -97.62213728453429 -1.5458716401239074
-90.56908218531434 -97.54351626265137 -1.5402128170492666
-89.14121462364395 -97.82246455848664 -1.5365289377499258
-87.49596314072743 -97.93958348498985 -1.5316336354328248
-86.09914296854762 -98.01335467249038 -1.5273617017881007
-84.51238994764105 -98.18131105122609 -1.5227047375283365
-82.84914258556908 -98.20173365873434 -1.517395159079227
-81.35466796860618 -98.2951397859834 -1.512779382504595
-79.78137185745156 -98.18885457376746 -1.5073195329663565
-78.21976282123488 -98.28178023873659 -1.5023336977416335
-76.5230420034319 -98.54627786120655 -1.4971370891427416
-75.3824522415828 -98.4505260464974 -1.4928761081217472
-122.41862844082286 -96.09355685034367 -1.638815317668654
-119.02732022920247 -96.42273165616649 -1.6266084814922896
-117.64298937529327 -96.45661486028028 -1.6236028995158795
-116.05570115202015 -96.36214948134224 -1.6197605691100514
-114.30272780395347 -96.48319677660069 -1.6159853705305611
-112.76670337146982 -96.39618118857146 -1.6128730634623891
-107.72728298386367 -96.69116130893221 -1.598879717333113
-106.36667652073206 -96.84785424279553 -1.5932165399358067
-104.7953350695693 -96.91067240330875 -1.5876825496662077
-103.29537421262647 -96.98202289032449 -1.5821892978975218
-101.9603833455582 -97.12349446800128 -1.5774808997297245
-98.07338500715579 -97.31693946836235 -1.5687753984131192
-112.03332406003825 -96.63014051366333 -1.6149152347366404
-110.84975358180068 -96.4320596683896 -1.6136054633413748
-109.33407832950314 -96.58845474403064 -1.6097170437008121
-108.33632103558399 -96.468337514068 -1.60446587717459
-147.1896299855426 -92.78861638337696 -1.6921894744792871
-146.35823271480683 -93.63342164776563 -1.6915893857489737
-145.2866986178326 -94.06547324564139 -1.6896214729765753
-74.3127987133566 -97.1651781746063 -1.4850131398353474
-73.32448481631528 -97.01525774538841 -1.4821078269621173
-146.00925221109446 -93.33652012604963 -1.6911257988152106
-144.71330971466838 -93.52036425925479 -1.6883203064365813
-142.99192302859404 -93.40430091803272 -1.6835157767044802
-141.288148468065 -93.57191206529936 -1.6794180053644987
-139.8472604466964 -93.67454875833305 -1.6757572994216565
-138.04615886625348 -93.60787873613015 -1.6705985743226015
-136.5961932105973 -93.83275844037215 -1.6671609535314096
-134.73954317763736 -93.92429584688708 -1.662220163877985
-133.35841876593582 -93.99121417389463 -1.6584952574834648
-131.64076801441797 -93.9578122791437 -1.6534326997448765
-130.1120416344092 -94.12138744984352 -1.6494644708268167
-128.5260751428347 -94.17660785293052 -1.6450804353800752
-126.9514587854123 -94.27842212400333 -1.6408380836628411
-125.36641017725982 -94.27852637576466 -1.6361952177157915
-123.74351907450826 -94.49040041859897 -1.6319948507510837
-122.09678609010957 -94.35994022387213 -1.6284838024674748
-120.53415024656493 -94.60284693571433 -1.6247199134447536
-119.07488696535327 -94.53233429553256 -1.621244281747836
-101.16720157346225 -95.37109213188549 -1.5699792574482117
-99.87887167349304 -95.59864663119106 -1.565656817965966
-98.07194493204635 -95.62186787528351 -1.5601607713496215
-96.73681202919789 -95.79276930804484 -1.5544557103213292
-95.32375112645725 -95.88336541343338 -1.5504196663756968
-93.633079997532 -96.0442201112354 -1.545701978857174
-92.02682734787805 -95.95157119709987 -1.5404440809484654
-90.44705768298404 -96.05268894487948 -1.5357607873120966
-88.96362386647237 -96.11035616454335 -1.5312752768465006
-87.29682955892395 -96.30033540975396 -1.5266263224882746
-85.74835699552676 -96.37545320322171 -1.5219744826864834
-84.0900516895715 -96.50707938326099 -1.5170253400110492
-82.44350707329485 -96.54292000413022 -1.5118530174881797
-81.08612625331648 -96.54679008375649 -1.5074982721274341
-79.23565468561274 -96.74194548303863 -1.5020102849036534
-77.85890786906947 -96.82696402154238 -1.497684412162398
-76.30083228151992 -96.8082897790702 -1.4924625610496647
-74.79916955263602 -97.02505093411925 -1.4879066655895026
-73.41828728295359 -96.67646955234295 -1.482411094030513
-122.0921796860575 -94.31301273142486 -1.6335246974349709
-118.34517395288555 -94.83768237447582 -1.6205162597283027
