# .PCD v0.7 - Point Cloud Data file format
VERSION 0.7
FIELDS x y z
SIZE 4 4 4
TYPE F F F
COUNT 1 1 1
WIDTH 822
HEIGHT 1
VIEWPOINT 0 0 0 1 0 0 0
POINTS 822
DATA ascii
-97.03436302468826 -136.0465717643936 -1.4579892000626122
-97.37605192502653 -135.4185600522696 -1.4591532496020452
-102.14689636753947 -136.13337276047486 -1.4421100706489391
-98.56948054048635 -136.03201349046446 -1.4656062993381864
-97.97478051199988 -135.21327841477438 -1.4619556112952192
-102.97222379411336 -136.09959055349668 -1.4492244645567816
-103.290361058486 -136.14447498244851 -1.4551475419978133
-100.30801159303884 -135.9466494531013 -1.4699539245732478
-103.32216582890344 -135.90316382577626 -1.4603914694111049
-103.01759695260898 -135.95880557216236 -1.4651287452700015
-102.31217672397499 -135.94454764587243 -1.471699738147334
-101.50020838875156 -135.561538601756 -1.4721909656345475
-99.62730718111635 -134.57430386617887 -1.4256452332491896
-95.83149837262914 -134.6044991104209 -1.4489118640547594
-95.62920548468179 -133.99002897858443 -1.4473851648878622
-100.64711167905159 -134.63943094016372 -1.430879097221837
-96.3611529167865 -134.57638003468026 -1.4518192607491605
-96.88461019281036 -134.31062084859641 -1.454683037361667
-102.00712070154499 -134.64087494495737 -1.4384467514001442
-98.38177529155044 -134.4347034707401 -1.4623578724641209
-97.79139850522104 -134.28450390835303 -1.4595299731090368
-102.86280364435231 -134.4507778010307 -1.4455492048119896
-103.16701294075675 -134.35840364574452 -1.4502142404815546
-100.05841935259714 -134.3129819552385 -1.4664698739016473
-103.2505993809193 -134.37904415388257 -1.4561127307062134
-102.91131583310568 -134.30062939839115 -1.4623220533032044
-102.24744691607751 -134.45738833659283 -1.4681774753239902
-101.14595029284689 -134.32932052928027 -1.4681344486576648
-99.49645124754338 -132.95265531005046 -1.4208402739947557
-95.37547575729386 -132.8125126953306 -1.4450336587243935
-100.28580752301558 -132.99297176767803 -1.4258164557906532
-95.9830599636862 -133.3821988617479 -1.4479173853943772
-96.35341084740662 -132.61408624695233 -1.4491322126821873
-101.63455706453047 -132.85016515449632 -1.4328355696217896
-98.37564266090781 -132.94668178857623 -1.4598911459221833
-97.60545884634061 -132.60579192508158 -1.4559062796093267
-102.61482601101277 -132.77494158198311 -1.4405311536405285
-103.04618319072948 -132.8920236080289 -1.4466745343601588
-99.45383433437473 -132.6893242806819 -1.4622824930825817
-103.15729968280087 -133.022190918186 -1.4511694515911615
-103.16413359411999 -133.4743532966284 -1.4577847020019497
-101.53544336944151 -133.19873546341086 -1.4655626881731132
-100.6712132042447 -132.64282724790274 -1.4638315846970573
-99.28135241309214 -131.20670690788478 -1.4147420142311098
-94.91989984901429 -131.27300911956252 -1.4416214079546212
-100.03623759443285 -131.30145786361675 -1.4210275746703753
-95.93218016230557 -131.03566115844944 -1.444808160290638
-101.3112807734193 -131.3511614332986 -1.4282033373205667
-97.43466809834634 -131.05502076573944 -1.4525330365026041
-102.46750898349788 -131.1766288220286 -1.4368586601859217
-98.97799676863755 -131.03467613526567 -1.4580647823771775
-98.10698683843016 -130.50658921004876 -1.454485468356107
-102.94389335839011 -131.0295271681858 -1.442915570752003
-100.14791440635904 -131.14220821864905 -1.4606413877831737
-99.09623133793284 -129.3898978341411 -1.407811835294722
-99.21225606915633 -130.11161414688377 -1.4112147180950247
-94.57858142257453 -129.76317874809965 -1.4388913339987563
-99.82789118658727 -129.75071836356227 -1.416567771126594
-95.56540583525391 -129.41646947956804 -1.441159224887433
-101.0025189475117 -129.57111432829848 -1.4232766734888174
-97.00995227538388 -129.35498165243172 -1.4476641652704838
-102.27219790380353 -129.55655275665012 -1.432666759369195
-98.76102641428287 -129.4955113572902 -1.4546014112409789
-97.85019186333567 -129.36862084222707 -1.4514457224259476
-102.76054408758871 -129.28016462253024 -1.4373311271166729
-102.82942391193376 -129.29101727762466 -1.4384667068698624
-99.73298067502338 -129.46980102709935 -1.45698359198605
-99.08112582325776 -128.0625029812413 -1.403972207986137
-93.89183397639304 -127.71830067048602 -1.4348728975490272
-99.25592364099154 -127.70825171743184 -1.4054891285398585
-99.65233423031984 -128.08838566558148 -1.4116381471332526
-95.11602284916799 -127.71808512793149 -1.4372155644656621
-100.69278212505412 -127.92346791676046 -1.418540720962759
-100.30724157895072 -127.11136657179247 -1.4260879224263385
-98.79742617347578 -127.10950356318787 -1.430040860946013
-98.31885523664307 -127.05317829554227 -1.4355319787606076
-97.94683773133755 -127.03947190564165 -1.4394185247414886
-96.84247035055664 -127.84247585822666 -1.44435481566429
-101.9493203831679 -127.76062792510783 -1.4270221810727755
-101.00363858533568 -127.07398682003718 -1.4307015207980995
-100.1689848798423 -127.04099321205291 -1.435683587942118
-99.45603313759742 -127.01546053793598 -1.4413940720528604
-98.68997960646665 -127.3564791172148 -1.4472583204278293
-97.71141025746658 -127.61567804399097 -1.447701382043676
-102.65239303202902 -127.77781226997976 -1.4337551864188138
-102.21505926873631 -127.00674953718216 -1.4368434900892841
-101.60312335094348 -127.53016088149961 -1.444646356098743
-100.95530067201884 -127.54934840060295 -1.4496629621695227
-99.67286859641685 -127.24361040571696 -1.450631142700638
-102.24158457290416 -127.27231568918069 -1.4482359850617403
-101.56615317321089 -127.27574218483726 -1.452635437563068
-98.99787129593207 -126.2824337301983 -1.3976043788027466
-93.6448454657529 -126.67560243816456 -1.4331878996817486
-93.26075584013161 -125.91294414372769 -1.431480258009947
-99.25735560020514 -125.89048428967202 -1.4009230575267877
-99.57789625602176 -126.27735721365697 -1.4077272875600038
-94.76997841611502 -126.20934071674131 -1.4341875021403143
-93.57980743144142 -125.96668003652616 -1.4321882164648185
-100.4851517161917 -126.303398799252 -1.4143962822136447
-100.20746534375937 -126.72827105943662 -1.4243560295180242
-98.6124328756479 -127.00950773631243 -1.4293010732643883
-98.15894472835384 -126.69242725131288 -1.4363170890791321
-97.70855065205791 -126.59074440955683 -1.4381711273654603
-96.36065335229003 -126.09594805124789 -1.4392122683525599
-101.64438135401984 -126.28551484076378 -1.4222954926396425
-101.02697100994149 -126.61671422369533 -1.427928502382574
-100.30340724374089 -126.91998127023162 -1.4349978021935084
-99.37885183982263 -126.81733831176903 -1.440478709926791
-98.55683877053004 -126.37098927096459 -1.4434531228420027
-97.50272361808892 -126.08641558753774 -1.4441723057734699
-102.46406047223623 -126.51446750862925 -1.429864353168133
-102.17399931904718 -126.73273073398657 -1.43643278474557
-101.5967989873879 -126.81265562584436 -1.4410385200940785
-100.70041244849497 -126.60790968150866 -1.4472533284241649
-99.5087765379714 -126.33128501079113 -1.448797566484876
-102.10066384839946 -126.80328132791547 -1.447666743967196
-101.38971488836886 -126.38289269260672 -1.4510039988147476
-98.93755979548166 -124.81738144409009 -1.3921027478897987
-92.78841962640442 -124.52986479962662 -1.4290092357769644
-99.23502905522318 -124.75282185754668 -1.397183982790814
-99.5008163171505 -124.77961558640219 -1.4041649005680072
-94.46147665625541 -124.7610904144573 -1.4314235776787654
-93.3890756596862 -124.442946181978 -1.4298964244665089
-100.20642317919052 -124.78089532474732 -1.4100247576897513
-96.0001217298924 -124.54954759415045 -1.434997285697257
-101.39002517580361 -124.59336052129896 -1.4177245186028475
-98.13417673493102 -124.46836600729861 -1.4435717081163875
-97.2455654708553 -124.44074745852195 -1.4401893327440567
-102.15530911699999 -124.57385489803627 -1.424042529634803
-98.64763105569297 -124.43051527763936 -1.445096409210248
-98.87346408976391 -122.9004543888542 -1.3850410571958243
-98.917913203133 -123.73807667407067 -1.3883758718747483
-92.27390646066648 -122.96036318805419 -1.4262648041876478
-98.96686334261922 -122.66811915712897 -1.3856700745966621
-99.22747599678955 -123.08170776474202 -1.3931490957700567
-99.39934105616915 -123.10531506531957 -1.3995563244364948
-94.30921954584501 -122.9211477423519 -1.4281181687685351
-93.12643225362119 -122.77502384505871 -1.427168867818162
-99.96480460850675 -123.04519581192619 -1.4054078538960861
-95.72441642183875 -122.85906927914164 -1.4309978390344171
-101.10163283574218 -123.01352145118796 -1.4131492855398144
-97.96224146868289 -123.18445633789993 -1.4406511535845872
-97.092275679458 -122.82260532298353 -1.4366594834502187
-101.91536451258256 -122.82372374562155 -1.419384392830744
-98.47252534275398 -122.8059130290764 -1.4414342028907925
-98.85976493206549 -121.59115185840912 -1.3806705791215077
-91.87639695287314 -121.6264268443243 -1.4240914142267616
-91.55046982251483 -120.78614449774658 -1.422510956293787
-99.00521633683415 -121.52172249229571 -1.3832564798651086
-99.20762983082686 -121.5432672543512 -1.3897498564955448
-94.08801401302651 -121.35261245130661 -1.425148571388647
-92.7864034573139 -121.17961042337123 -1.424373748219569
-99.26510222643097 -120.87742123143363 -1.3932886529972373
-99.62465387926487 -121.39942939805046 -1.4000956930321988
-95.2645345355306 -121.17873340084044 -1.4266160173120006
-100.79493499309051 -121.33672969536448 -1.4083968986763586
-96.78849042973414 -121.13560039593311 -1.4323509862842485
-101.75910332727412 -121.19122390202226 -1.4160392624330336
-98.21260215175556 -121.0633984113799 -1.4372171489240908
-97.6565631584713 -121.08434809902867 -1.435661800047668
-98.8072798653153 -120.14898965474089 -1.3753246237672938
-91.1021962633459 -119.5629460553462 -1.4202756589952377
-98.96848777552994 -119.91297554120054 -1.378494911801198
-99.11298549050774 -119.72094640776974 -1.3849790086650486
-93.81915781064649 -119.79376864015298 -1.4220030832926462
-92.6669116302043 -119.49662137728035 -1.421287059483147
-91.51759375884131 -119.25084883382944 -1.4203347120112781
-99.16120686690392 -119.69832742422129 -1.3901837110467106
-99.37184867432977 -119.70101368366949 -1.3954624237154853
-94.81320455245799 -119.5498718179037 -1.422392181640647
-100.50533127801761 -119.73805541886517 -1.4039149698577662
-96.45530842390008 -119.49784745136365 -1.4280025169060069
-101.43154325436895 -119.56627811740323 -1.4110438427284486
-98.11322388717007 -119.42644940330926 -1.4334074194635
-97.3741155561023 -119.27661348273517 -1.4311909961888842
-98.72079250435937 -117.55111548855963 -1.365630617409312
-98.73661600521902 -118.36648880550615 -1.3686101725507545
-90.51598296852569 -117.80432303619271 -1.4172017796408378
-98.89208259377075 -118.01593902390954 -1.3733766740347275
-98.95088806111262 -118.16224056301303 -1.3808967109552859
-92.43932003871144 -117.76514716758598 -1.4176506575426049
-91.20465957156135 -117.82569472553756 -1.4177847272628383
-98.95091688462199 -117.93326632201638 -1.3854931593937232
-99.19949687921905 -118.04171063441349 -1.3918904089712643
-94.50505336231987 -117.85783387837752 -1.4180366520199377
-93.43756597745761 -117.82204782103031 -1.4175293624283312
-100.21884056443545 -117.91348762718718 -1.399265123365546
-96.2358480634065 -117.82947124251065 -1.4239249204652684
-101.14103166527593 -117.94554643723987 -1.406879272696354
-101.4241381075702 -117.80619877997287 -1.4110924180272362
-97.895010782565 -117.7460323953479 -1.4289961441016141
-97.09499717075583 -117.69336698339006 -1.4269327215761978
-98.67914564470689 -116.64050965783419 -1.3623184039563272
-90.0239011660701 -116.29967885422612 -1.4146053416068993
-89.6910777086511 -115.66359707564487 -1.4132372339835917
-98.74995870005034 -116.08951533565423 -1.3624991183580322
-98.80985588315734 -116.68976937746301 -1.3695290648461604
-98.7692053567145 -116.49948077362691 -1.3764745764890791
-92.25582667079853 -116.21786921451404 -1.4141830522872993
-90.91834048949765 -116.10247777512969 -1.4145030514220691
-98.76038121178374 -116.39089984315343 -1.381059884474785
-98.96185859815002 -116.28202539719555 -1.3873691142548805
-94.1737936935478 -116.20612609669764 -1.4138619327477597
-93.10784681676981 -116.33082568526162 -1.4140555500370098
-99.98155289425358 -116.42209730089664 -1.3955398398886376
-95.92953467936502 -116.04335072125703 -1.4191925029362382
-100.87146228098698 -116.35314381196982 -1.403060240250811
-101.15925823974166 -116.27998053090104 -1.4075411225159125
-97.61874424614976 -116.16146750482675 -1.4247425841481336
-96.84809446889376 -116.10152998349295 -1.4227391829273568
-98.61803626630804 -115.13401826407154 -1.3567893215914377
-89.31746296446737 -114.50831918619812 -1.411186236562152
-98.70461640663963 -115.01404144935071 -1.3596193584760923
-98.67335375706098 -114.93583042823599 -1.3665004123921372
-98.59270016076736 -115.01606924359638 -1.3724367649553606
-92.00437943611507 -114.578913011895 -1.4104417122210264
-90.70900135426216 -114.578184854556 -1.4114571378850105
-89.7787468732919 -114.68365151098439 -1.412043715169655
-98.57401728527304 -114.96849079031531 -1.3767953942209301
-98.67932061685421 -114.75994381710221 -1.3830804890450585
-93.8811647636294 -114.58930232770898 -1.4099066658087365
-92.79040216234065 -114.55677563464964 -1.4098033299624426
-99.6174188936331 -114.77397166490772 -1.3907582415139312
-95.60082323844625 -114.66857256104998 -1.41515172737998
-100.5386259235252 -114.7190295217658 -1.3984085318900528
-100.83855963328571 -114.53597876029386 -1.4029652513010757
-97.51296852560098 -114.44036004299576 -1.420339434931873
-96.53391659858525 -114.79188307648913 -1.4188592174025638
-98.5309589039663 -113.28726521698832 -1.3499240113754867
-88.84036794911528 -112.9016894041598 -1.4084032563696902
-98.60651859578341 -113.16875683692817 -1.353682760313573
-98.5462643919337 -113.32463684390486 -1.3624635367980114
-98.44786507074095 -113.52104761163392 -1.3678922701791825
-91.65271493297024 -112.96223107657111 -1.4069916089094827
-90.67019655408521 -112.91910628586061 -1.407949261558681
-89.32801483278861 -112.80026409543221 -1.4084706862931453
-98.37083175600029 -113.19469027774842 -1.3711671833337116
-98.36522200396871 -113.04168773681656 -1.3780655040515806
-93.58343178571047 -112.86898979546004 -1.405538363160751
-92.35440491767473 -112.98966613764243 -1.4062265504535247
-99.15625431348921 -113.02088134119126 -1.3852726404185014
-95.24749035776264 -112.98789136879074 -1.4102875304161016
-100.08975869216599 -113.03813989189692 -1.3928449448386508
-100.52029043458944 -112.9440190462822 -1.3988022421136381
-97.18731102540919 -112.84180199005492 -1.41575686447615
-96.24998193577098 -113.21287817238641 -1.4144407283879847
-100.8721115802046 -112.88582514774825 -1.404290332589593
-99.56284734017068 -112.00749656131168 -1.418786351440781
-97.97591113222605 -112.50127875477546 -1.415675736205678
-101.40649416544044 -112.4559684688692 -1.4102884259817234
-101.29227153406231 -112.47717645736448 -1.415806113687112
-100.44367617758326 -112.47339554243105 -1.419865289263614
-98.44263772018168 -111.35104707813026 -1.3428984987905217
-98.48140350818018 -112.25800242247925 -1.3462204464162988
-88.2957793619437 -111.24412128821429 -1.40536469136539
-98.48257998935046 -111.12538275923217 -1.3434315746154697
-98.51955042860567 -111.69554636317743 -1.3495036076532112
-98.39804144272506 -111.68659851966444 -1.3581888323004596
-98.02694061987638 -110.84573007122984 -1.360383507319364
-91.2665268006127 -110.99397639334383 -1.4022505336186883
-90.53637884623441 -111.3621732403954 -1.4044938195689505
-89.0692504493716 -111.1293658690508 -1.4051792462039712
-98.23681957205464 -111.37144043072075 -1.3619227678731238
-98.14620413850122 -111.5880739811601 -1.3668206171466755
-98.10037149511484 -111.48797981190263 -1.3746199518871154
-93.32008282266199 -111.19442362334493 -1.4009239050714715
-92.0971850470199 -111.29841650454381 -1.4022123348108448
-98.93310636480335 -111.49378836153244 -1.3819683845738149
-94.91286895596657 -111.26767007215626 -1.4053152130031865
-99.74974641931894 -111.30673326538793 -1.3885403152012856
-100.19192274864982 -111.45266263872035 -1.3945043380021356
-96.71490735056108 -111.23468320974911 -1.4108119027762747
-95.72259753422976 -110.89703504644258 -1.40743088412594
-100.66614923950905 -111.01219710341411 -1.4013492796004114
-100.86249490601469 -110.54963500094564 -1.40524974935794
-99.30121981798999 -110.89580614982306 -1.4151335747544702
-98.18046871625562 -110.581558959355 -1.4118173069002562
-101.01439840489903 -111.37661434023136 -1.4120584249891726
-100.24306396812987 -111.26370438332178 -1.4158520708361582
-98.40612578871026 -110.11670729103072 -1.3389620544429242
-87.91924432102813 -110.0832894528411 -1.4032243182683992
-87.63469058304469 -109.40790681124498 -1.401824410528055
-98.4294609310063 -110.03377809517488 -1.340279165652945
-98.37362001832462 -110.05001285120635 -1.3461815046383665
-97.92891122503282 -110.01631496466823 -1.3534914864715484
-97.55357938462501 -109.94231204902331 -1.3586725751614572
-91.16370717690305 -109.77304047840224 -1.3970356328092612
-90.07763185275253 -109.50998334264861 -1.3996609557972812
-88.73329491086331 -109.72234736764881 -1.4023568338944041
-87.80103173473944 -109.04653706046534 -1.4014354113707692
-97.89689208117736 -109.3611238008118 -1.3561379674605378
-97.55254316421463 -109.91785636088397 -1.362293942586503
-97.6821772662894 -110.00552443533766 -1.3697632688548582
-92.92475355229149 -109.65809243308082 -1.395981881989116
-91.70843164956035 -109.42786507878397 -1.3963366964848978
-98.67342210910371 -109.91683323603223 -1.3783483786938813
-95.36309646071446 -109.29358764089426 -1.4025675226126528
-94.65826580117043 -109.74338187333451 -1.4010867169438497
-99.43195416311194 -109.82634486214363 -1.3846134484123347
-99.7582728135798 -109.67957674441865 -1.3893316242017797
-96.39766913312356 -109.72061217233748 -1.4063279313471342
-100.31399343578077 -109.57657548000087 -1.3971779683617547
-100.50855882420821 -109.32125121120878 -1.4018865801286415
-98.98133362188453 -109.4803657932483 -1.4103938636524902
-97.95184329909793 -109.58148133389302 -1.4087557629270084
-100.49351810165028 -109.58899339413438 -1.4069928994911693
-99.92503864186027 -109.66796831217682 -1.4105970935009597
-98.2785376352422 -108.54712673827362 -1.3329490188952398
-87.31625010988226 -108.00447420743703 -1.3993377384911339
-98.32186783181432 -108.40179907622738 -1.3354429353570834
-98.1709397782192 -108.42019555372369 -1.3418888384626013
-97.72424417903422 -108.34550872604734 -1.3491708375593061
-97.30815530226772 -108.10606331321969 -1.352879671943421
-90.74561117565617 -107.8707666627707 -1.392251408382244
-89.87580452341942 -107.96629778931893 -1.395487707960192
-88.39639031731473 -107.89929812792751 -1.3983870024730434
-87.44498612352159 -107.5041384031741 -1.3983644918015952
-97.69334451944424 -108.2832177094427 -1.3533875982507864
-97.36426446571957 -108.32362829223551 -1.358139742549661
-97.2841257568489 -108.08081555465937 -1.3648751626114388
-92.70323079602417 -108.02261005433064 -1.3915293491647192
-91.4760133421127 -107.95132293394661 -1.3923002321762636
-98.16762127256183 -108.12985635018302 -1.372398391236353
-95.08021565327863 -107.97554792959666 -1.3985603508951705
-94.28667817408088 -107.97108760256168 -1.3959590919095255
-98.97734399024625 -108.13542011451797 -1.379475379041388
-99.37438993173947 -108.1311199283328 -1.3852258706075302
-96.22191303285446 -107.88157647857938 -1.4010486883588384
-99.81168331525562 -107.96792967813792 -1.391765130672996
-100.08367448469292 -107.91101880323994 -1.3983585409088355
-98.76889545490522 -107.78124724090709 -1.4046419252235771
-97.58255297940752 -107.94761941395863 -1.4036494598835252
-99.97340215915436 -107.99222208849034 -1.402760768535461
-99.58706643300756 -107.8324309065319 -1.4041709857664417
-98.17674052293394 -106.72949147177263 -1.326911783223944
-86.71785459908247 -106.44100052976049 -1.396102564372056
-98.17775437835904 -106.88066288143996 -1.3318228264318641
-97.91139456394933 -106.82998682563321 -1.3383211085904703
-97.6369473187059 -106.8146274059105 -1.3439052124902635
-90.4223310957217 -106.26420894413798 -1.3878232717198276
-89.60143272503079 -106.29182119454015 -1.3910152281308257
-88.26163041088411 -106.23635666175439 -1.3941727259410743
-87.27818513402784 -106.28098329971868 -1.3957764024272605
-97.1816210753535 -106.4772807864776 -1.3529172356937333
-97.06531668715635 -106.59943999451131 -1.3621316884027204
-92.39231565819848 -106.52663997269295 -1.3873003070410077
-91.06968638413288 -106.25204597022538 -1.3875765360578514
-97.86347865575755 -106.48820221884398 -1.3686209875803548
-94.72264947076889 -106.33825424548179 -1.3935467539975204
-93.93731087467941 -106.32050823360416 -1.390989186734032
-98.61105229337021 -106.65566443823032 -1.375303360842554
-98.93038403004552 -106.46466382868991 -1.3804655536328967
-95.99307659905394 -106.38192685395083 -1.3964495657540044
-99.42690251374893 -106.47913221817012 -1.387814730550429
-99.54313333521465 -106.26718346816146 -1.3939774246498084
-98.51861088150345 -106.17048545782951 -1.3990505219977185
-97.14047857175605 -106.21225863648277 -1.3979888623661585
-99.52105944116606 -106.79549691505441 -1.399775208318728
-99.33658813512628 -106.93509822073781 -1.401215255767895
-98.01505503696063 -104.56747409301472 -1.3191550479144263
-98.0869642508949 -105.53331547910057 -1.3225814477867113
-86.20619102678926 -104.62927820969288 -1.3926056095452235
-98.03723972476413 -105.13047240763515 -1.3254288406237358
-97.67633525279945 -105.14062144457485 -1.3334562670906984
-97.00613351303892 -105.01853317990907 -1.3413646346712476
-96.64069588041542 -104.70852488513512 -1.3443188334385985
-90.12680956062616 -104.70078939040161 -1.3838181112053447
-89.35368299054025 -104.72356114163843 -1.3867262564378582
-88.04717866682287 -104.57765351788925 -1.3899013818290824
-86.92279126715705 -104.69207531717187 -1.392345523206847
-97.15299819113683 -105.59223324657466 -1.3463910791337435
-96.65676003067483 -104.99105109819078 -1.3485642969492828
-96.49854138258377 -104.9487905086839 -1.3542895079302462
-91.93664467150455 -104.66762096175378 -1.3816812440386201
-90.80523877556294 -104.83813972665358 -1.3839095030007709
-97.49227040253928 -104.98065544350385 -1.3643246398204365
-94.24839938696401 -104.67507842495782 -1.3880734509015058
-93.43512268207851 -104.77740802217403 -1.3857333211617846
-98.05863496296382 -104.75989066410706 -1.3693051007657286
-98.46884850157676 -104.77962070124832 -1.3753594880293636
-95.67821799272785 -104.69308292326656 -1.3913456258924046
-98.90820518281213 -104.73987416091364 -1.3824427082196804
-99.04244410467082 -104.70486713902545 -1.3900313315221149
-97.89884477411525 -104.63183193463999 -1.3938632290267403
-96.85511770307156 -104.8957542576882 -1.3938081219498255
-97.90021914923393 -103.43124346705919 -1.3153105898024298
-85.82795779772944 -103.52601726024886 -1.3902389421278643
-85.49104287189407 -102.52973900207692 -1.3880047305566474
-97.97539082906809 -103.62870685228455 -1.3173617886031277
-97.83476767662216 -103.52970863968325 -1.3213893147376046
-97.40179168370642 -103.53788701943013 -1.3293546891750663
-96.99252699139616 -103.39556601311001 -1.3357128149899322
-89.2031975609836 -103.11137082304874 -1.3827660060185865
-87.84051123382463 -102.97733756085267 -1.3856100930491313
-86.53844907319582 -102.99657330701605 -1.3885501010863692
-85.67904946996023 -102.4324055540504 -1.388140834163972
-96.85688760722417 -103.75498448520119 -1.3407533686120663
-96.51746330042752 -103.26314024345174 -1.3443258410473493
-96.28055347576523 -103.28383315249957 -1.3512352965511203
-92.0060349691787 -103.08277375359637 -1.3777952064920815
-90.50539506489254 -103.07267716327705 -1.3798171030413071
-89.70690483773672 -102.86783039914985 -1.3808832041755303
-97.14495723768206 -103.23755579912046 -1.3604115974410316
-97.59015918639449 -102.89931121829856 -1.3640779972285533
-93.820535156268 -102.83420965299557 -1.382331247995198
-93.08914963239727 -102.92316406965868 -1.3799693057646272
-97.8163759856207 -103.85636333846062 -1.3666363659826708
-98.03897293370639 -103.09281932054455 -1.3707522562257166
-95.36850823067687 -102.97632742781369 -1.3861178154652676
-98.48997930145721 -103.27004871795386 -1.3779220199747702
-98.56886086698691 -103.0390519120545 -1.3838005746771187
-97.28782367520559 -103.11067283117687 -1.3889005878416465
-96.51436781099427 -103.0828466907016 -1.3882278845579068
-97.76119870942196 -101.90680757862148 -1.3104032455321608
-85.20824758889393 -101.43370671642117 -1.385703671663267
-97.78045447254068 -101.72456287516442 -1.3116610373004471
-97.5947817654363 -101.87893156464726 -1.3173351521266805
-97.1039937097139 -101.8449514409648 -1.3251276472559637
-96.72573247806162 -101.84559883562231 -1.3313283245607699
-88.71536278344014 -101.35274612797508 -1.3784793140233491
-87.58044773124543 -101.3228059356731 -1.3812652382998267
-86.17542378442502 -101.50186539622369 -1.3851788065538149
-85.43234526563374 -101.07834564636462 -1.385215293716631
-96.4816027856899 -101.85464828789395 -1.3358146161445146
-96.2254035176198 -101.7148370657289 -1.3389105593101407
-95.94253524301332 -101.66739098268708 -1.3480638312582875
-91.53508413152714 -101.44171763735538 -1.3727922712952874
-90.11633325927755 -101.57492262689429 -1.3758231265648486
-89.52399123872891 -101.96264000773762 -1.3785150476092878
-96.70360747219766 -101.5342504388002 -1.355414207070359
-97.16877051562983 -101.44474417018598 -1.3594495789535865
-93.60640813577635 -101.33320563351985 -1.378053760738698
-92.72951599103767 -101.43456920003035 -1.3753301258607942
-97.62515008562127 -101.51317649252623 -1.3660957006292103
-96.02607781909973 -100.86150225700939 -1.3813178389639487
-95.19143442227099 -101.438771729082 -1.381540168195961
-98.08195760859769 -101.69269617550076 -1.3735250127388547
-98.09872639466376 -101.39391944291194 -1.3783491354064616
-97.11938228279108 -101.33246474823774 -1.383220300810897
-97.57184173616065 -100.11216284938105 -1.3042715000080698
-84.72461449731561 -99.69251582195558 -1.3819921354013451
-97.62308793625151 -100.28324431278806 -1.307503963798355
-97.32674477585107 -100.21672906802425 -1.3131710894090898
-96.84619299564535 -100.1940137191857 -1.3203875453068095
-96.41560911921196 -100.07230065926377 -1.3262669189142544
-88.46071042855179 -99.67276952317772 -1.3738261926816908
-87.27681183491971 -99.70405128843028 -1.377085861923715
-85.97978974606754 -99.79660333401085 -1.380743122728962
-85.07289280220114 -99.50525348481527 -1.3816983400252192
-96.0942203744276 -99.86659839756076 -1.3300849404655901
-95.86102353094303 -100.04057741604326 -1.3348464159327182
-95.55173338322929 -100.00570833775431 -1.3436460576228775
-91.3446447469185 -99.83973177323884 -1.368162125532653
-89.68777197188705 -99.60355442551128 -1.3703571853859806
-88.98984735152649 -99.02402776522561 -1.3702999202925368
-96.24516432920844 -99.9427271221587 -1.3503756522885368
-96.65377533439646 -99.45002838104142 -1.3538199294953919
-93.12310003624117 -99.52700802651727 -1.3721914323218678
-92.4204575829842 -99.85994813513689 -1.3706671478570092
-97.2290238404621 -99.76148344158746 -1.3621824637752522
-97.3729893421111 -98.99699093785397 -1.365950700638935
-95.78786485904442 -99.65282383353119 -1.377559370842324
-94.59866417843396 -99.76670943920614 -1.376022230243988
-97.62481378181936 -99.71458804116537 -1.3729036487975403
-96.6466952289129 -99.64943684492158 -1.3777668597146784
-97.41639341896675 -98.73937632268569 -1.3002324697806271
-84.42670556969354 -98.32012496174114 -1.3788767676953304
-97.35628940210903 -98.58410808611671 -1.3032538723513252
-97.00619519056755 -98.59225765526104 -1.3091831431537129
-96.56327065429967 -98.57516462622236 -1.3156870091873296
-96.02851858145962 -98.47157771816718 -1.3228210144681545
-88.69411510073523 -97.37192705486288 -1.3654939361339975
-88.30829518484187 -98.11121405200569 -1.3690424105240488
-87.07048085289948 -97.90497852184484 -1.3718409559541689
-85.7452049936467 -97.99357857750809 -1.3758397858683895
-84.8395044950277 -98.00399169632814 -1.3779443609363744
-95.74632127984948 -98.19477647682977 -1.3253961650202102
-95.51352088767712 -98.39216130019545 -1.3298103506998382
-95.17684331457572 -98.26766390076187 -1.3385563809161567
-90.80594137037528 -98.16081764306566 -1.3631919710614204
-89.47506919322683 -98.03783743176203 -1.3655214260759725
-95.81161497423336 -98.48438281180108 -1.345628380594899
-96.3293820829964 -98.17550648868539 -1.3503132788368468
-92.85115898219014 -98.11222540969993 -1.3679314850712005
-91.9720452437492 -98.14137738186963 -1.3651745984368786
-96.80359483200733 -98.1599977438485 -1.3574315140689874
-97.06591307567861 -97.92588723746587 -1.3629854292423627
-95.44741677243447 -98.23127541990972 -1.3729890084133776
-94.48846512620996 -98.06583158997744 -1.3711189792737293
-97.17584350481356 -98.24133495192288 -1.3689012382445134
-96.33093745878858 -98.04497059365758 -1.372457229265547
-97.23864693352698 -97.46641404855029 -1.2962935843284602
-83.8526285750084 -96.28980154858326 -1.3737807021459325
-97.11862555277753 -96.95150574819522 -1.2980203345238042
-96.69164362107344 -96.97981886982525 -1.3048292716840308
-96.17541578721345 -96.81169271391278 -1.3114981318991408
-95.67583562450325 -96.79123797624042 -1.3180756387781687
-88.54008684081822 -96.59044766798677 -1.3631976616395889
-87.90997106649672 -96.45699396760274 -1.3645261038474064
-86.71371544226766 -96.33153755181642 -1.3676593234380556
-85.5462749809752 -96.45486476055264 -1.3714662963974202
-84.41271938627018 -96.24294177312312 -1.373685648110891
-95.49850489130883 -97.0837074792929 -1.322331558924983
-95.18136867458287 -96.77977239016806 -1.3247276709042337
-94.76856279242881 -96.64520119610013 -1.3333357076797703
-90.58910366929912 -96.51260166265519 -1.3585196579163712
-89.06566840487973 -96.41021673105998 -1.3609344200401654
-95.41903384416057 -96.76075151098817 -1.3410192412350972
-95.82634501207293 -96.59152299351753 -1.3448523417255023
-92.47850881697238 -96.38656927383856 -1.3625551749160998
-91.82092680110706 -97.2716710338034 -1.3626543070647266
-96.3966836046611 -96.60994306678286 -1.3529849752951895
-96.61660822542012 -96.38036910664155 -1.3586287168822235
-95.2081564199583 -96.5515929076066 -1.3675766309277493
-94.10779097372985 -96.35089724871294 -1.365782753084009
-96.55896693393973 -96.326908393118 -1.3627853612699148
-95.9995509758333 -96.49578813178465 -1.3669813562535817
-97.1106976790058 -95.08129127180293 -1.2851916821737457
-96.98123163717588 -95.72119956791416 -1.2897534092876421
-83.44695622202985 -95.16454234686103 -1.3717218635502006
-82.78665663191302 -94.47479280761267 -1.3718316126387893
-97.124483844253 -94.75881241023718 -1.2873976471513178
-96.86184484782122 -95.29094330868205 -1.2930053590041903
-96.3576142244864 -95.21059354101659 -1.2998886296634573
-95.88659748725674 -95.1545073803307 -1.306259925399893
-95.37698914858706 -95.29573096890473 -1.3135902581518484
-95.04520454558092 -95.1367309096557 -1.3170827594432
-88.25749650715132 -94.69648462515119 -1.3573455407312793
-87.4807933140101 -94.81777112263785 -1.3601230080056506
-86.42143139729755 -94.76858427007264 -1.3632468845740995
-85.15394978317437 -94.83019654174606 -1.3673149975325583
-83.95762323793382 -94.50014523143224 -1.369576680021866
-83.19346708715493 -94.01597236261117 -1.3706133884187435
-94.72064731536805 -95.11371966097659 -1.32111108065542
-94.39718512575375 -95.03169857346518 -1.3286320812223378
-91.20037940154074 -94.64179048513049 -1.3545270010368977
-90.04681640900658 -94.82653288332229 -1.3533281036600155
-88.82154192407799 -94.9219218179222 -1.3563952242325719
-94.93616149722126 -95.06304128882927 -1.3356558590534413
-95.40083398908772 -94.90646882308612 -1.3402265559241853
-92.19474744200755 -94.81608271504903 -1.3578671993951241
-95.95574978989355 -94.92117565168914 -1.3481690928288068
-96.15192997417303 -94.84579983531493 -1.3548315081685456
-94.88024219166236 -94.7145463791641 -1.3614210412815937
-93.7646009542414 -94.97277905820073 -1.3614286591722544
-96.05635939618769 -95.00576086201777 -1.3596478291758316
-95.75185196963189 -95.20304363235596 -1.362204368075398
-97.57531731008926 -93.50643527352086 -1.2746312786015033
-97.35258611628699 -94.03737834768401 -1.280091489484371
-82.26000427723814 -93.1914707791089 -1.3710643335453918
-81.44248832783433 -92.74238852361303 -1.3723120460491276
-97.11196103061744 -93.54439138228486 -1.2829526792493964
-96.61196480719971 -93.74183103969118 -1.2884789907509029
-96.10318753035506 -93.63451566576285 -1.294947369959599
-95.5753137411436 -93.56280701686156 -1.3016234619844922
-95.00362817724776 -93.54368042641943 -1.308569430886808
-94.58342070392904 -93.32417615207848 -1.3127077652248018
-88.04756470790699 -93.32745706640765 -1.3531334369788646
-87.15787413567348 -93.17249614251233 -1.3553673755556914
-86.14941783535575 -93.1297926705046 -1.3584580400153288
-84.91116764893408 -93.13414993092306 -1.3624398085956861
-83.64722282058958 -93.0595403945179 -1.3660613000620419
-82.84169514687413 -92.9447129027076 -1.3687636638550102
-94.30988435340083 -93.37360435363809 -1.3164925798864022
-93.99436221762723 -93.38369232611174 -1.323826434327851
-94.32703004381462 -92.89420013789042 -1.3288713863159567
-90.8532194754387 -93.0160663603435 -1.3495989818274083
-89.74195319679228 -93.26515074553492 -1.3486855312361141
-88.5930200802569 -93.10647661404454 -1.3506552702398278
-94.93466116992934 -93.21197478015824 -1.3351933760566017
-91.94541585153435 -93.1208987612693 -1.3528791690492563
-95.55506083106053 -93.38654269398559 -1.3438667531148083
-95.59301707536754 -93.2861272532989 -1.351113925038338
-94.55636951894711 -93.1061628931622 -1.3557238756272696
-93.43850014011467 -93.26681436859018 -1.356149424479616
-98.11662342249892 -91.99304404890704 -1.2653216593846297
-97.73400244702074 -92.1410885306031 -1.271585217896347
-97.39564045708958 -92.53865453337185 -1.276633244252643
-81.98922460800641 -91.66590911193956 -1.3684566482810652
-81.32629252242009 -91.41201448442601 -1.37024545839382
-80.15798075405739 -91.24775784064929 -1.3728101089036504
-97.04472285080368 -91.98227523470204 -1.2774258244672525
-96.40364109653733 -92.0942330047191 -1.2836380762880129
-95.81901599810871 -92.01711261957671 -1.2907007528938401
-95.218468730071 -91.93084656622433 -1.2973735666400195
-94.61977517924784 -91.82173676587293 -1.3037818340306722
-94.22249335700658 -91.85309799562711 -1.3088839401888799
-87.71062387878682 -91.43679625477725 -1.3474008428342659
-86.75010539873458 -91.50341711607557 -1.3507384603740227
-85.66480524879587 -91.49530069297259 -1.354402421136596
-84.59204382211524 -91.40448011598228 -1.3576910666855675
-83.46007583958018 -91.42955547061531 -1.3615037292092278
-82.40299947508043 -91.24116428025297 -1.3651526422423796
-93.91561140162189 -91.79478112746634 -1.312217430214067
-93.57387848951153 -91.83795865919163 -1.3183454233550065
-93.87390378736977 -91.42330754385492 -1.3241511713709628
-90.46888163835578 -91.43268425467913 -1.3444907927365066
-89.29928086109723 -91.51295977236522 -1.3431735986710978
-88.25525484251034 -91.49922810370832 -1.3458150556779434
-94.47295607123354 -91.5431211131483 -1.3304044955326573
-91.63332674836346 -91.62556964744817 -1.3481425078516815
-95.03690569003976 -91.58875810701659 -1.3383995162265663
-95.08179860784297 -91.59320999900937 -1.3445134326609387
-94.15766814963705 -91.47379835504894 -1.3497678699711622
-93.0082805989505 -91.59564467034518 -1.350624977683739
-98.6560340709387 -90.34041783469418 -1.2545347836204024
-98.23168395780246 -90.58611268875325 -1.261140175684021
-97.58075472306797 -90.44797067740366 -1.2668309858938005
-81.04519837246166 -89.8252662772906 -1.3666313460937587
-80.11046718168842 -89.67110752835023 -1.3702726835138788
-79.02527245759642 -89.62745817465643 -1.373632297252037
-78.10444423876194 -88.96056056563035 -1.3742203630685312
-97.19273060447887 -90.29233795527 -1.2694583669234063
-96.79601092367791 -90.4048525744662 -1.273222777023075
-96.09832621957125 -90.38499204720247 -1.279361828026339
-95.50690731075477 -90.3718280894339 -1.2859370379811126
-94.8155668893396 -90.22951813767163 -1.2929374680995638
-94.2461851702204 -90.1676851740004 -1.2989023685119987
-93.79265709481895 -90.3992646404752 -1.3053943480607002
-87.37893732101888 -89.8592767498986 -1.3424394181889465
-86.40083538117624 -89.82601381688804 -1.3457590464420583
-85.39500773478453 -89.86273485264027 -1.349462275533946
-84.26198788340473 -89.9376908370356 -1.3537085646020477
-83.0676186769156 -89.73528419450983 -1.3571725993454893
-82.1239330562189 -89.87779430621657 -1.3618377691181665
-81.43962478707722 -89.42529914603492 -1.3634774875757039
-93.44422705483747 -90.24284990689297 -1.3085053176682286
-93.12475680989321 -90.18674643509308 -1.3139336871630922
-93.44425548685045 -89.93730803295124 -1.319644087881623
-90.0385895330014 -89.82419119453235 -1.339153952521023
-88.87527073641121 -90.08973857124406 -1.3387926799719911
-88.09250617510922 -90.19336224871515 -1.3413021365800621
-94.09968461896464 -90.09086818553014 -1.3265568195119526
-91.42854603127678 -89.82368397735631 -1.34278334029053
-94.6289981820593 -90.25342058185873 -1.3339094481453666
-94.512743764622 -90.05408034451077 -1.3399500533990947
-93.50354373244205 -89.96373023689351 -1.3446544458107172
-92.72195829490525 -90.047342453114 -1.3456157855326314
-99.159870750964 -88.78136656462962 -1.2442717850362834
-98.67577524114515 -88.99143765723925 -1.251513073865994
-97.99558345164013 -88.92002299485483 -1.2572865780902147
-97.47877044521998 -89.02600197213661 -1.2620147031694424
-80.50276833466353 -88.01350055558657 -1.363020862135026
-79.89706083460226 -88.09395902265605 -1.3660746037163465
-78.81414123200855 -87.98991076914226 -1.3706052681916727
-77.75059281166435 -87.9942884876339 -1.374012720116197
-76.71659178500303 -87.2359817907423 -1.3746633602834517
-97.07249620926474 -88.85467802071148 -1.2646670555942379
-96.45464761007253 -88.78157706663457 -1.2690975789460066
-95.80947730969454 -88.67935517106278 -1.274426197472639
-95.16054355293431 -88.70704631647003 -1.2810328886876758
-94.51522662650905 -88.71457864002603 -1.2881817163927696
-93.88611771035667 -88.54072414646221 -1.2940292937202003
-93.24773033315051 -88.56850808012173 -1.3009499887897387
-92.81444205893115 -88.21048566817352 -1.3037627440712993
-87.81802596183667 -88.01389998419577 -1.3337682936535165
-87.22222457130363 -88.23918038034039 -1.336762017812161
-86.08932038293189 -88.06958965555883 -1.3403077373550127
-85.04759079710347 -88.17833973747479 -1.3445132135253526
-83.95545350630049 -88.17638660730233 -1.3483987991109716
-82.75158684722724 -87.96556664148319 -1.352440592024619
-81.74062758385656 -88.07155132854595 -1.3571427381860994
-81.06976820390501 -88.08116365859519 -1.3605646239717482
-92.68012897306195 -88.54037549648656 -1.3079620185811773
-93.03028732294182 -88.43686443736507 -1.3152961679604123
-89.6561186744995 -88.16616325964897 -1.3338517824682625
-88.5096300886135 -88.29812692012071 -1.3329042766671613
-93.83648538339106 -88.45508246629274 -1.32425033485217
-91.24126432548363 -88.22524719789762 -1.3379990464847995
-94.13163964799328 -88.4961996010619 -1.3296113368736366
-93.90476786599481 -88.2173318324223 -1.333223978740508
-93.04901924970203 -88.28466808987494 -1.3385386375216537
-92.45256922778115 -88.71593040180768 -1.3412572951487476
-99.92041538414614 -86.67805137209999 -1.2283997667209876
-99.63683595366498 -87.21406545267794 -1.2344674269455325
-99.21894602571201 -87.27796755428162 -1.2405413140887283
-98.4568771534588 -87.15677003660733 -1.2463926368246077
-97.74073414086827 -87.31728202452331 -1.2529248333751806
-97.03861372925256 -86.97162907789077 -1.2569073415716687
-80.26792093259625 -86.44701482514867 -1.3584556167502382
-79.53533329694184 -86.38624389529501 -1.3618930367615116
-78.5280199456179 -86.37032061563998 -1.3665631814279535
-77.59800383279166 -86.23377559120402 -1.3704305755940158
-76.45769893370904 -86.25975873020363 -1.374507231648865
-75.58884121110408 -85.77762517985742 -1.3756314517046577
-96.80974239143237 -87.27784249732579 -1.2599437182395186
-96.13167523637345 -87.1332036162885 -1.2643755569427448
-95.89866727987456 -87.11488398605776 -1.2716515023603603
-94.7540388858139 -87.0051327622223 -1.2764851234820904
-94.24114006403572 -87.1429907210289 -1.2827944286807447
-93.5403434836275 -86.95855192846793 -1.2893056355730157
-92.87878236399149 -86.92130220366036 -1.2960029686558678
-92.30945347331635 -86.58905361115188 -1.3001827385522107
-87.65721359632471 -86.53560474470844 -1.3286628416861352
-86.84952975850122 -86.51767349092508 -1.3316230588538167
-85.64764736575553 -86.46944158742629 -1.3359517270146926
-84.60313690772304 -86.4717433291152 -1.3397878100199179
-83.52495179937412 -86.52494164547302 -1.3438852979977272
-82.69971477084681 -86.50240363401096 -1.350608979913691
-81.47591611277855 -86.34698444019736 -1.351856980148293
-80.76681626212854 -86.43667202650686 -1.355851176411384
-96.73316325051667 -86.41834653020958 -1.2732961105294964
-92.21997262239319 -87.12893210354382 -1.3049335565301643
-92.51394598809688 -86.92462783013752 -1.3099800046819294
-89.33493256213278 -86.55217194011759 -1.3288508239206893
-88.2448167259186 -86.73026376455036 -1.3276511561804711
-83.34995402227572 -85.92589878509465 -1.354029473508487
-93.27527371985813 -86.71305208424046 -1.318429620351596
-93.3928785412129 -86.17611570104901 -1.323025348034573
-91.9831211800197 -86.63444842247331 -1.3340486316971338
-90.9568427371983 -86.62809714562202 -1.3330251635899577
-93.38538382361382 -86.7499044380251 -1.3284021247548823
-92.67106909527023 -86.65086743758262 -1.3324115061053654
-100.42898202002192 -85.1325842206226 -1.2181898905976005
-100.19146808321163 -85.78127753093244 -1.2243868426290914
-99.65774949972615 -85.75302164589345 -1.2308687690390598
-98.90070968769729 -85.7279021001062 -1.2369828835125736
-98.1759916274148 -85.70120344430126 -1.242751768216181
-97.38395091454889 -85.58252749806637 -1.2483183867416914
-96.69873774177712 -85.49792631598449 -1.2530667584189934
-80.0682716678036 -84.76033607817017 -1.3529802794484649
-79.19093303951774 -84.71342880497495 -1.3573128904940401
-78.27055421061654 -84.64342405217718 -1.3617253589481162
-77.34201450180473 -84.60333517901236 -1.3660463886958518
-76.23398363922333 -84.55686721410886 -1.3710836197179348
-75.21944068300522 -84.64367333921957 -1.3748597004122216
-74.25571599884476 -84.03162524103466 -1.3761774424956312
-96.34757231375305 -85.5222890045645 -1.255791113790386
-95.75717403282695 -85.58233786441909 -1.2603767186172758
-95.61633630789916 -85.45895018644252 -1.2672844784773307
-94.42036488993524 -85.44453122743202 -1.2717696812555666
-93.73713688381434 -85.25771666959943 -1.2780931593217193
-93.09908776136533 -85.2723968079165 -1.2848644103158238
-92.50798685610982 -85.29432314422895 -1.2911291379848573
-91.8822920102451 -85.15135435484024 -1.2967352198095905
-87.44548934484777 -84.98211011101381 -1.3234175466655838
-86.43548212421376 -84.93054400605365 -1.3270915048325174
-85.36322611522682 -84.90272431232374 -1.3310231405817075
-84.28990382356005 -85.03241217645517 -1.3355245371464097
-83.1512671026046 -84.88917987280763 -1.3391462308490631
-82.51566718127478 -84.77740456873411 -1.3463122794935256
-81.14756280680987 -84.73440103783383 -1.347208414766902
-80.50024234523826 -84.82321777991069 -1.3509955948438737
-96.45245908194137 -85.47399129613426 -1.2715022906984452
-91.76771307991335 -85.59688525133441 -1.3011511582032103
-92.05119454231362 -84.98778919370868 -1.3051625394029553
-89.0180774529932 -84.93429115937097 -1.3237198992753199
-88.04925057808045 -85.09564143926913 -1.3220583340624288
-83.22637317404418 -84.94890496877483 -1.3511475092874945
-92.77218494815952 -85.16044211686504 -1.3130889789251199
-92.83104037837138 -84.99831669428895 -1.3209371934688878
-91.83634925580891 -84.99924512041977 -1.327168015950656
-90.50381284588939 -84.90644337239806 -1.3272188889724823
-92.86881344182974 -85.7422070457524 -1.3263991531890653
-92.56144641035027 -85.55777982780742 -1.3273425977348134
-100.91036300935559 -83.57935220932823 -1.2078887715474198
-100.63772213438281 -84.15162400084287 -1.21395755896496
-100.08461424830583 -84.10335597029207 -1.2207765046091248
-99.36937690317812 -84.04025533231383 -1.2263279342433955
-98.64085976243072 -84.09730180373113 -1.2323796239140354
-97.85980069383245 -84.15069610950948 -1.2385602304338486
-97.04374154484239 -83.99188649976603 -1.243964515856082
-96.21811911908596 -83.78396783169401 -1.2490512165261725
-95.47945683371873 -83.45351979989357 -1.2526876886077305
-81.04650326557731 -82.419024058254 -1.3379969523155562
-80.64789883956419 -82.76224686681893 -1.3416645274445531
-79.79595884473007 -83.02507390566437 -1.3474966661062813
-78.92125912765098 -83.21713524830736 -1.3529178133688782
-77.93015597474054 -83.01697902479077 -1.35726064884734
-76.97412370499768 -82.97872992997102 -1.3619761089723967
-75.97249088965158 -82.95819982213894 -1.3667849332263837
-75.04864453535495 -82.94400830373408 -1.3711409997585844
-73.95468368709201 -82.97111852896475 -1.3753015999630294
-73.01665843279389 -82.47273264367192 -1.3767195131040457
-95.47391117412349 -84.12355813036565 -1.2557754649933328
-95.32647979586984 -83.80048866808318 -1.2629753525305611
-94.05676907047456 -83.76913932289011 -1.2666077281381296
-93.43384631067498 -83.8322702494944 -1.2735812969153226
-92.74011182022863 -83.73126272936392 -1.2801607352474493
-92.14614691701394 -83.69082758341693 -1.2859785869412281
-91.45572996846207 -83.57361640129784 -1.2921475776116846
-87.54287770615801 -82.60278803164404 -1.3139471473343278
-87.11512457116154 -83.29954566787717 -1.317888804307941
-86.1124974387244 -83.35429419015475 -1.3220680469004868
-84.87693482244076 -83.25152586757648 -1.3264406220615312
-83.86358827208672 -83.24212719567217 -1.330273671943724
-82.71444625172447 -83.10412660804528 -1.3339923574782317
-82.12155428761447 -83.16379306031033 -1.3419743212477
-80.91732158043484 -83.41304987262076 -1.3429235759751594
-96.15397052871678 -84.3741591090711 -1.2688390033432029
-91.62410939012852 -83.41317397436836 -1.3009266340160923
-88.78514337711675 -83.42002306544968 -1.3190107233472026
-82.95546768366496 -83.20686952615831 -1.3455854740269315
-92.24550116731437 -83.33135849154384 -1.3083387826141335
-92.16322925210818 -83.37280959793222 -1.3156608569904482
-91.40077841076837 -83.44132013078192 -1.320992170614495
-90.12078869944455 -83.30846806750756 -1.3217870320148308
-101.42051610314829 -82.10569907829806 -1.1986833466411373
-101.1711168913602 -82.54740378945341 -1.2037357747353776
-100.48868552061673 -82.50636772335424 -1.2110760445676687
-99.83352536769709 -82.53151486919114 -1.2164013333957795
-99.06816196635184 -82.46955448562802 -1.2221846923073916
-98.35109068910965 -82.54159201090215 -1.2279308054733789
-97.47140578628292 -82.34063225132714 -1.2336136995332636
-96.67158037098027 -82.24743112939515 -1.2389341895431647
-95.9006981953275 -82.26690920477574 -1.2443735781056788
-95.09081380981611 -82.35783440400986 -1.2503843999922144
-94.57029361721341 -82.00666703100276 -1.2523334964885429
-80.89396257532054 -81.59267382006338 -1.3353432148787248
-80.38346772427866 -81.50268303659715 -1.337789059564264
-79.42659922731309 -81.48465816705163 -1.3430391770712835
-78.55213198741643 -81.54289397255164 -1.3481318325927807
-77.5623347402909 -81.36574862213398 -1.3527507634209783
-76.63836481936153 -81.18444964667889 -1.3568425136352449
-75.74905085783622 -81.34240525524746 -1.3619794725736518
-74.7015086437159 -81.30660962868484 -1.3670274763045416
-73.69838028382756 -81.20775346433317 -1.3715086589493617
-72.68702883518229 -81.28830250005454 -1.375852195174877
-71.77699618838066 -80.7695450305713 -1.3772902099575273
-94.93789319924625 -82.13236290815178 -1.258286059602377
-93.63509084488679 -82.02429247418132 -1.2615176664328316
-93.03797771011497 -82.0681451670913 -1.2680499418295055
