# .PCD v0.7 - Point Cloud Data file format
VERSION 0.7
FIELDS x y z
SIZE 4 4 4
TYPE F F F
COUNT 1 1 1
WIDTH 826
HEIGHT 1
VIEWPOINT 0 0 0 1 0 0 0
POINTS 826
DATA ascii
-90.05194586538609 -108.26282095453192 -1.3379812526439994
-92.07874392471489 -108.18629186069013 -1.3375126338673928
-93.264890770539 -108.32293309481527 -1.3426006483612332
-90.62266757301269 -108.38594707335002 -1.3360040845447254
-91.16147538188623 -108.24095578394197 -1.3355354093905667
-84.7574227946569 -106.35194432776171 -1.382130545758277
-103.96618954044496 -106.651815383273 -1.3732962404003164
-85.26779015414928 -106.54955348419604 -1.379841635141508
-86.20318790527608 -106.56466961941496 -1.3764008289735556
-87.05867391892232 -106.60444070867135 -1.3737234794906588
-99.14989423290602 -106.43931393328538 -1.3661229274335394
-100.35293583868885 -106.48928565073108 -1.3668176083803856
-102.0988117512969 -106.45204626580424 -1.3687222418550844
-103.3172016375384 -106.5000511149442 -1.3709820319563013
-88.41986179481397 -106.36538227413497 -1.3678988599148558
-89.48697535026433 -106.57812795960864 -1.3631717643081607
-97.01753428956724 -106.71225469655673 -1.3616717117098975
-98.43132156207459 -106.43280665691299 -1.3642210077503207
-89.2765343441779 -106.54733143351689 -1.356158399793689
-95.13572645830844 -106.6227034407832 -1.3497077006802278
-95.71574039710156 -106.5694103679339 -1.3536182174670581
-89.16886501367117 -106.7881868827358 -1.3505565936972832
-89.32828852652864 -106.66045407636634 -1.3454440236322942
-94.0744279010036 -106.71060568247495 -1.3442176190338306
-89.54041950633784 -106.75682948757749 -1.339449238411067
-90.01585375564629 -106.61671074118321 -1.3342413895827794
-91.61351886649962 -106.56320394517671 -1.3337888774632598
-92.98477247386757 -106.57597510328426 -1.3388957478349832
-90.67989017411679 -107.18897033725123 -1.3333367646199823
-91.03714284749391 -107.3370627777047 -1.3337047998361717
-83.92119424094294 -104.17288067838928 -1.3767510095520565
-84.29119348720309 -105.14593054943116 -1.3791791441167602
-103.9708637850273 -104.85243479735166 -1.3680933996941618
-84.58956292177734 -104.78425503542067 -1.37558731507853
-85.78677385250549 -104.87308870162065 -1.3717938957415152
-87.28894315732866 -104.8287025317658 -1.3683744217559157
-87.94549133600151 -104.55433141120847 -1.3661472177104366
-98.89809462837212 -104.87805987726897 -1.3617929009145344
-100.02089130637295 -104.92096945707904 -1.3624917327506096
-101.72346246360453 -104.79661266905455 -1.3638367282626034
-103.18472858608203 -104.91931863227643 -1.3663562051198173
-87.69919393706762 -105.43901218298623 -1.3676494162969384
-88.38634262287475 -104.87258778091628 -1.3648708097055302
-89.12893700124215 -104.88914718179899 -1.3616155945094814
-96.74320402461888 -104.84564963872963 -1.3573730186558661
-98.19606305137125 -105.02042667050085 -1.3603241205223477
-89.08215056139136 -105.03631630391598 -1.3525169149380922
-94.91648182622531 -104.94729943377406 -1.3463424114843345
-95.56089293676386 -105.01236518089947 -1.3507971355788846
-88.95589598010967 -104.88082881785589 -1.3466086897517593
-89.13021707224173 -104.96781305681854 -1.3417049957348113
-93.71929028108984 -105.01607963833492 -1.3400066796731636
-89.37097072767041 -105.00816008452827 -1.3357830184024602
-89.98957412835576 -105.05465207880155 -1.3305123775923156
-91.59181637458765 -105.00975719603194 -1.3313096101186719
-92.73023616912863 -105.25245873867084 -1.3358609028932225
-83.53707912565613 -103.02973914209556 -1.3738726032254727
-104.02106445525128 -103.75341807192088 -1.365276825250636
-104.05163984388939 -102.76002096703067 -1.3627789765433858
-83.68435825309227 -103.2434369524715 -1.3733489784892705
-84.23086151079313 -103.18755906139714 -1.3708076275096888
-85.49869009563024 -103.27296337070356 -1.3672648122680688
-86.56319678002986 -103.19602134889624 -1.3638986437704725
-99.61339025048615 -103.31464665697119 -1.3574465901939945
-101.34388719701545 -103.19768540537059 -1.359227585693054
-103.035268477112 -103.23108309690708 -1.361518729190741
-103.85409706113406 -102.66932828525754 -1.3616356210469986
-87.254598277304 -103.59525928270592 -1.3629780952554913
-87.92668245377376 -103.15129514629366 -1.3593920540147642
-88.87954880572904 -103.2402463363094 -1.35595879229841
-96.11088044354993 -103.2692788754208 -1.351739612648076
-97.9189293990065 -103.26228955023966 -1.355064529516049
-98.85912419548836 -103.06503549740535 -1.3558556757543547
-88.87623143629995 -103.30115198821879 -1.3474031629212107
-88.73465485089044 -103.0166259767519 -1.3420997906432797
-94.60188287819173 -103.09735330309462 -1.3421236111182169
-95.1551031484679 -103.15021538417383 -1.3462735449034935
-88.85108738307241 -103.97400899804192 -1.344545039855639
-88.94844122623165 -103.2790315416495 -1.3375518361552279
-93.34322230025356 -103.29326324798444 -1.3357186483080232
-89.20818472712584 -103.53082398101805 -1.332610948032953
-89.69289729890156 -103.36883019478879 -1.3275995846482747
-91.58526392851185 -103.47571423902525 -1.3287510316156759
-92.34173444009927 -103.43236550677575 -1.3314117002276828
-83.03092151428831 -101.49881639045752 -1.3698096928036796
-104.00713999305354 -101.66985265623101 -1.3596635597746478
-83.11818297016711 -101.33538672608144 -1.3680748857864522
-83.90557095156713 -101.54175740853296 -1.3659058103965704
-85.2133733755629 -101.58378342569709 -1.362439827656743
-86.24379752805366 -101.64422113563012 -1.3597806436680582
-99.5184360088183 -101.55884295107911 -1.3529197875512982
-101.01034135869567 -101.54498047532692 -1.3545485392850496
-102.92683335557092 -101.7422243427369 -1.3573443441274422
-103.6809579252633 -101.32289821349302 -1.3575215930849898
-86.95862016072873 -101.69662830927486 -1.357807986791108
-87.5304526638437 -101.59009696268363 -1.3559963953138656
-88.75178863457049 -101.635718294173 -1.3509834705542025
-95.93789257489424 -101.62024971251572 -1.3481829271085464
-97.7751820826105 -101.76369389011442 -1.3513396996464817
-98.72100133422073 -102.16044423029749 -1.3534154587434488
-88.66562529578758 -101.5921751743629 -1.3434447743575646
-88.56597700228694 -101.55292903022972 -1.339079238240768
-94.24207647255392 -101.59478343914321 -1.3380188608178643
-94.91572474341366 -101.6541581421245 -1.3429015264969129
-88.75573679096244 -101.69384595237196 -1.333908313765336
-91.93407286314434 -101.20060420983371 -1.326222960604842
-92.90966545353037 -101.75258059808758 -1.3315047206765822
-89.03570902267414 -101.95062518837165 -1.328800635786711
-89.47334623014225 -101.71120011183035 -1.3242971332378195
-91.0060001598689 -101.6903200562842 -1.3240039618744603
-82.42674639983503 -99.69254109089846 -1.3653246511736372
-103.96756193832981 -99.93697900177519 -1.3548547790870942
-82.71606759149665 -99.89263371837612 -1.3640153942024935
-83.59799592908348 -99.88339481744698 -1.36110188267679
-84.83789501285234 -99.93048619204701 -1.3580155238384113
-85.87904589262085 -99.86829749066337 -1.3551122257947619
-99.14532815014124 -99.87832771374349 -1.3482888359127008
-100.74384550408232 -99.92815931119955 -1.3500780693376675
-102.50989732418351 -100.04016319440264 -1.3522726196323995
-103.54579501298356 -99.75655947347258 -1.3530394259053447
-86.58657790639931 -99.70457906136329 -1.3527306628723332
-87.33474583004994 -99.91991179039714 -1.3513680984756233
-88.54997031188336 -99.97373626832166 -1.3467169076250094
-95.50658765408576 -100.01638071577939 -1.3437247290393355
-97.47554664675825 -99.79006082912231 -1.346308723785475
-98.15558095706814 -99.21902595321758 -1.345635122198484
-88.48085048640382 -99.99096057557115 -1.3401159041079205
-88.33982369478244 -99.5539071273254 -1.3343004045118378
-93.97828594365683 -99.77653867494563 -1.334216054055305
-94.61084390296743 -100.07504591804687 -1.338964007854827
-88.60110787891166 -99.94975453332297 -1.3289026604796093
-88.74737972489983 -99.24929329833478 -1.3223616117497132
-91.68301275423883 -99.98660575252403 -1.3233141410608482
-92.81175273921113 -100.06665849919766 -1.3284882549326869
-89.25485650568476 -100.02042273404304 -1.3208339337401942
-90.78500982856316 -99.99589036671715 -1.3205236613881284
-82.04166721978193 -98.31749398555209 -1.3615244696729012
-103.82811376850327 -98.57018073880208 -1.3509252387139083
-82.39461913369239 -98.19757741634207 -1.3590785524599873
-83.36831134071664 -98.26281299520159 -1.356537145654049
-84.49663874692762 -98.30841214550891 -1.353802486972446
-85.77772167201748 -98.27556743919307 -1.3505350315104079
-97.81390280168489 -97.5634567763009 -1.3413626005688006
-98.66208110998069 -98.31253027521237 -1.344007794321978
-100.2468621723071 -98.12659445192178 -1.3450760322423305
-102.07719125400061 -98.2379707592326 -1.3471272756612116
-103.25939583019068 -98.25894294275912 -1.348669581469918
-86.31046045857035 -98.03047057057769 -1.3484492028395738
-87.02560613176144 -98.26489837005875 -1.347415263963673
-88.25532961485551 -98.2309198218475 -1.3424393758647595
-95.40541131608532 -98.33015885066744 -1.340169761172541
-97.05110073021159 -98.2189570378154 -1.3422249575907779
-88.31278926325416 -98.5222189473384 -1.3371875468042511
-88.19946046890547 -98.2776293198559 -1.331176801021093
-93.69111331995465 -98.35706031835649 -1.330703929730872
-94.35622185122129 -98.34603790455577 -1.3352577263897296
-88.40900404455124 -98.34226647198498 -1.3252454039397312
-88.66442754931718 -98.17610610678744 -1.3198539877949025
-91.43707831795724 -98.55651197273338 -1.3201712974760416
-92.25670899788972 -98.36502889618188 -1.3234635964965298
-89.17690010757313 -98.54477251353559 -1.3174197346813634
-90.41890938293325 -98.38103974264301 -1.3168587208818283
-81.70099539890799 -97.0400178601514 -1.358223620006724
-103.71527486994104 -96.54145457485454 -1.345823370989994
-81.94972457759408 -96.55717995919571 -1.3549872637177929
-83.09654177624851 -96.65017186213731 -1.3522391747641103
-84.30411197860803 -96.55013621255107 -1.3488833959649336
-85.50011705861132 -96.59255324135728 -1.3462612268200242
-97.66509093418983 -96.7799270202678 -1.3393993269441318
-98.45914572931167 -96.65667030148802 -1.339862042864181
-100.04170899412895 -96.55304707246121 -1.3409941686730948
-101.68749383876974 -96.69802030060556 -1.3428489390292622
-103.10171381869304 -96.50181831468129 -1.3439254752417422
-86.14991603349935 -96.91821528388765 -1.3456231838335457
-86.6991153833863 -96.64452318713835 -1.3436216479518477
-87.99528318501757 -96.59841965118304 -1.338915764410273
-94.9932459449134 -96.6807016705589 -1.3355908492942399
-96.85566252285419 -96.58802239182313 -1.3382881926820989
-88.08707562680566 -96.79815523702152 -1.3327389847888762
-88.02054478821789 -96.67879884865151 -1.3282832354735667
-93.3664466531966 -96.62330737257187 -1.3266575495680955
-94.17245295843546 -97.47466169608596 -1.3329885261229146
-88.2331997852988 -96.78803795510302 -1.3215969139211827
-88.54350695969262 -96.62669557920027 -1.316303025109586
-90.97091374339516 -96.86858336208822 -1.3159630645116354
-91.94579243450605 -96.64199205228928 -1.319470084678984
-89.01905262587088 -96.61732338277017 -1.3136509871429884
-90.05853570593973 -96.81788275980514 -1.3136172758001514
-80.4677294527104 -94.61027309234092 -1.3537044692828546
-81.13357027850704 -95.27660894359919 -1.3544442104251937
-103.82358704727648 -95.42396996875435 -1.342792780772492
-104.46869383006202 -94.74824079807564 -1.341356417131545
-80.64184952089045 -94.32063678068428 -1.3507093982282803
-81.54440719984686 -94.89170715646668 -1.3506820141255722
-82.76997350278913 -94.87916202647628 -1.3475899469842865
-83.9108863655129 -94.885231410391 -1.3448312997351282
-85.21051972909137 -95.0921275556644 -1.3425729104195412
-85.90120872366752 -94.97019033874217 -1.3406547086104965
-97.17845822094453 -94.87911449295002 -1.3345389234128882
-98.30220621213616 -95.01615502509378 -1.3358154392796278
-99.7453927089846 -94.98805466459092 -1.3369078794241955
-101.51807281181762 -95.07468079376372 -1.338605177619074
-102.99133608014847 -94.76360617361541 -1.339266195503885
-103.86259769038773 -94.29559579853348 -1.3385917275081813
-86.65247991033476 -94.98577620648693 -1.3390543528870626
-87.74888487513516 -94.98042546676332 -1.3350035037829426
-93.74063345200709 -94.8324902664231 -1.3269432054584362
-94.87281002939413 -94.98519902658124 -1.332148294751348
-96.50286176195054 -95.09469504037611 -1.3345001063110506
-87.8845309259164 -95.09029964044338 -1.329162036274123
-87.832411153779 -94.99157186696159 -1.3241367033131426
-93.0324186957527 -95.04825159297883 -1.3226779290040958
-88.04198866018207 -95.09504892244831 -1.3175969198395867
-88.4966411364129 -95.09352662128896 -1.3125080568574174
-90.50809118662421 -95.01926252110609 -1.3117103980790872
-91.72916353452369 -95.25622611154009 -1.316416439409628
-89.10167412991014 -95.29750430927153 -1.3106185145089335
-89.70603089668978 -95.51167116191525 -1.3109516845060376
-78.74014185865843 -92.97906735265987 -1.351022863899726
-79.5850046984816 -93.54793793504962 -1.350957732483657
-104.82020045902753 -93.48942630968251 -1.3371214773196682
-105.77350309241787 -93.05698824315279 -1.3366542478288423
-80.07951250627194 -93.09667674058004 -1.3475007660192808
-81.19268767877415 -93.33946760520037 -1.346603705537742
-82.37842279517153 -93.2964094961906 -1.3436487260913474
-83.60927346717885 -93.2898054732938 -1.3408000124219754
-84.91972550368753 -93.33646271718915 -1.3381790720152524
-85.76383324353584 -93.16148854640697 -1.3358361113095745
-96.83458038330419 -93.50525441453297 -1.3310319634030057
-97.9954027981979 -93.36739813362733 -1.3316292602922282
-99.38146862937045 -93.34585717969944 -1.3326173678527604
-101.10817518591897 -93.37641986127161 -1.3339954622366723
-102.81773752040174 -93.32635385442707 -1.335285543510954
-103.94001638806863 -93.23330102080953 -1.3355324034063714
-86.44354267002439 -93.24540997210244 -1.3345862600958835
-87.52221150097634 -93.32753168375464 -1.331080873562231
-87.62428868069706 -92.909290498714 -1.324527054784774
-93.44440696810034 -93.20060792648087 -1.3230345646497697
-94.56688746859328 -93.41918761297728 -1.328250567398996
-95.97793874455756 -93.27184316871138 -1.329791250223482
-87.64566586589636 -93.29046684775581 -1.3203203451552556
-92.61822854263575 -93.34957586857861 -1.3181623016999653
-87.87569639026052 -93.55734813689023 -1.3139163279257697
-88.55597454008493 -93.5356988017382 -1.308830391623819
-90.11114991912748 -93.39649016417208 -1.308290354394794
-91.36656707378195 -93.54314093294758 -1.3122638796422872
-77.0631966994186 -91.42138491354756 -1.3476361409694477
-78.12006155929667 -91.62535633467549 -1.3456787201426683
-79.03303917535382 -92.05920598890845 -1.3455662522956107
-104.6869348552301 -91.97969711173515 -1.3320393420243346
-105.54994044666053 -91.7440299122035 -1.3317248018144927
-107.04117306928455 -91.5972154360207 -1.3329304068590655
-79.43011176950019 -91.52365133070454 -1.3434132583782112
-80.75446527316531 -91.68896190061679 -1.3421056907107627
-82.08446377613238 -91.68043670439619 -1.339166469818022
-83.39118966348062 -91.65880082749237 -1.336471840199918
-84.66684309121084 -91.61228802015556 -1.3338221086165551
-85.60995848952668 -91.69086969231861 -1.332051179432587
-96.41848832640069 -91.60822640164241 -1.3262814981764324
-97.78964904547716 -91.69584517094228 -1.3275088130923764
-99.31938397698653 -91.71286600391205 -1.3285503785803239
-100.78917209279643 -91.64594140857248 -1.3293769958591
-102.38730406948305 -91.69612732603287 -1.3306342761514007
-103.86645905985858 -91.53851853388217 -1.3307088419698174
-86.26850553628637 -91.66521729245092 -1.3306511166810042
-87.25697704236467 -91.76658530472189 -1.3281340844497462
-87.47858337908878 -91.42842418728323 -1.321580399581712
-93.17419537558324 -91.6074634204387 -1.3195605552012915
-94.30065002511057 -91.65744578615003 -1.324372711090275
-95.68245946337554 -91.65890276388429 -1.3258906122368217
-87.48148120292913 -91.61681707863868 -1.3164659101785225
-92.31745452898654 -91.84655245190254 -1.314670771676007
-87.68993121088653 -91.75094226632983 -1.3100184861509745
-88.25940029589057 -91.81929938057995 -1.3061280706680192
-89.76561102508319 -91.74686742440603 -1.3051423013549737
-91.09422987176731 -91.85998788793206 -1.3087550859377928
-75.22461631861869 -89.71331894160781 -1.3444802752389864
-76.37083528658896 -90.01502771565667 -1.342922127476395
-77.62691333420719 -89.93227735364182 -1.340732969906361
-105.31973200649965 -90.16438980486048 -1.3269938526806537
-106.67084838568952 -90.04138169006978 -1.3268650793934693
-108.16603560920328 -90.02078612278932 -1.327918898255885
-109.14046316384278 -89.36902522448017 -1.327102584661744
-78.29079917678003 -89.8039388941702 -1.3395386632330744
-79.10680862797406 -89.94733068966478 -1.3389921047909994
-80.47051547939068 -89.98336816576072 -1.3372537984792314
-81.76528098578025 -90.03171770022287 -1.3349519304701263
-83.19631320556525 -89.95803655663798 -1.332058280847421
-84.40082005295062 -89.95311980073411 -1.3298251688177551
-85.5653237530266 -90.23960898709704 -1.3283572797693826
-96.10738727553904 -90.02292962342341 -1.3225836176428794
-97.48508218731072 -90.01328928986824 -1.3233834511707354
-98.93847207697536 -90.07516129149226 -1.3243771508078024
-100.58671313378466 -90.17820797074945 -1.3256160708775042
-102.19258852270534 -90.0034232963528 -1.3261585595108738
-103.68766755454811 -90.17862451592798 -1.326888911734234
-104.53769798266167 -89.74856332338324 -1.3257525067725253
-86.23558267714907 -90.11601459160691 -1.3267386266267613
-87.11924195468362 -90.11411214426845 -1.3240951064323154
-87.32769424456549 -89.93540659072913 -1.3183553277163513
-92.92743101407372 -89.98703650128134 -1.3162453771179936
-94.16303554235539 -90.22668405712379 -1.321362091699512
-95.26436968736944 -90.34373973752439 -1.3227355859757286
-87.3403733001443 -90.16405599027235 -1.3128265981090572
-91.80698723112813 -90.04109201345942 -1.309720615038037
-87.53327917485248 -90.40446456913092 -1.3074591921304506
-88.2463738688797 -90.27248545684395 -1.303105096729747
-89.79110511297968 -90.22149097240603 -1.3028642978897198
-90.73284625666693 -90.30307762429868 -1.305091080722295
-73.48675186009916 -88.10100354803838 -1.341572241581548
-74.75731876931488 -88.37404692893908 -1.3396298673500664
-76.06002695750627 -88.35650721774186 -1.337808992374575
-77.10106025487705 -88.50211363255906 -1.337005252911008
-105.34585150025568 -88.36341500842619 -1.3219556570046336
-106.31031312423063 -88.46580660799388 -1.3223334503884112
-107.91492655513235 -88.39883062928253 -1.3223594146062678
-109.39681732026742 -88.42556705573641 -1.3235539505047325
-110.48903734523837 -87.68444269743426 -1.3225967019814062
-77.78534341376074 -88.35859715193375 -1.3357743433770217
-78.88565967728196 -88.3262307505963 -1.3345821103638262
-80.10278613484296 -88.2746210676329 -1.3327759940494277
-81.46652279431618 -88.3622180306131 -1.330833420547357
-82.87899314579448 -88.43594081157343 -1.328445598908367
-84.12381473781198 -88.32045211941318 -1.3259162717920896
-85.50797034011629 -88.41152801193472 -1.3237478345585423
-86.21778889709059 -88.08830505517481 -1.3215800951581087
-94.56945221084975 -88.1487065630649 -1.3174798718055998
-95.53242346702864 -88.39103133048056 -1.3185786419676337
-97.0842363766852 -88.24966248108662 -1.3190432492523905
-98.63425433047104 -88.38616301267209 -1.3201928518109116
-100.19431388594182 -88.41137926086488 -1.3211490771594345
-101.86777439084287 -88.23432114227413 -1.3213226717687092
-103.43471567802582 -88.37367127561363 -1.3220572504494266
-104.49859861091237 -88.41039544433119 -1.32205899309373
-86.81977801632975 -88.4501875829201 -1.321029104549757
-87.17458460025655 -88.43022543281704 -1.3149124448984622
-92.62783090076601 -88.31951469412033 -1.3125171119036887
-93.77228577483386 -88.42373958520804 -1.3172848540674336
-87.21785732316486 -88.5506606232923 -1.3069914170994372
-91.35711978721112 -88.4391020220164 -1.3053653526963267
-87.44750587875942 -88.64978799031559 -1.3029757020509762
-88.02555737192793 -88.41413284703472 -1.3000688075529903
-89.48425720381334 -88.52424821558301 -1.2997564854918646
-90.44172746098899 -88.96345269311375 -1.3020432139268898
-70.85127120292881 -85.90576667075153 -1.3386508149629792
-71.82305113393082 -86.48512547510266 -1.3384231729280762
-72.8896880339519 -86.60510507071528 -1.3362763869796515
-74.28261186526416 -86.53910539313695 -1.3344141114199277
-75.72462175379232 -86.75391240766899 -1.333379806342277
-76.84132499640528 -86.45157286944657 -1.3313791645898212
-104.97231096305515 -86.79410663815895 -1.3177693300100621
-106.09641624351929 -86.76199174382958 -1.317604422598098
-107.64346528099398 -86.78283745423619 -1.3177461198506295
-109.0141963209081 -86.67931454770176 -1.317550171187157
-110.64798270337639 -86.73302135304364 -1.3186746507578968
-111.6402762987661 -86.26662777615454 -1.3182787636456565
-77.42461274935549 -86.77727216016052 -1.3317205150251932
-78.58198075203296 -86.67481763242968 -1.3303600621590184
-79.56357570923745 -86.72979115217731 -1.326496089370849
-81.26416913280794 -86.65968295869811 -1.326497004509116
-82.46392694613202 -86.85267168105985 -1.3248624220759422
-83.85128998836149 -86.73294200489437 -1.3220920645230145
-85.23088132616662 -86.75835290775291 -1.3198120673816087
-86.22686445717517 -86.47267068340004 -1.317346710550809
-94.07144034172046 -86.66020552143755 -1.313834007647471
-95.2321925608237 -86.6637664348206 -1.31440635328243
-96.9495043428388 -86.64737618379507 -1.3151988388658624
-98.4540728011497 -86.67678187265852 -1.316059894343035
-100.02636870425746 -86.75784932359927 -1.3171144096524465
-101.58522396909342 -86.79581534219493 -1.3153949398158546
-103.00385249343084 -86.6432238793362 -1.3176278336138594
-104.17477796287847 -86.7630784101025 -1.317789127584601
-78.76406642929985 -86.08154568196134 -1.3194739542847103
-86.85854851866253 -87.04445453811184 -1.317353076333917
-87.0320210268557 -86.90231138295954 -1.312324442508412
-92.29769061245136 -86.69856731212255 -1.3086313629041508
-93.3612313276619 -86.84558825425958 -1.3136086651346257
-101.17458205827657 -86.2801766282368 -1.3084363306680684
-87.04830855501723 -86.79412745763918 -1.3037194638010834
-87.33010985437356 -86.32260556634955 -1.2978714107526665
-89.9984190155867 -86.86444566202212 -1.2976707437352182
-90.9921525513134 -86.83521290980255 -1.3014327167138275
-87.94082542754678 -86.9347677930999 -1.2974061001448496
-89.09910276278107 -86.87170726498897 -1.2966430569493546
-69.11513099911434 -84.3072330893129 -1.3357624322255257
-70.06248522378488 -84.99776025151543 -1.3358689475354244
-71.28454132854232 -85.03120576462446 -1.3333724603650186
-72.7086660499763 -85.06116476212672 -1.3318064507970158
-74.06321396695698 -85.08639904212238 -1.330346189717056
-75.45972659287544 -85.01952436163158 -1.3287644302723054
-76.66296810047177 -84.97849011805697 -1.3275267792809125
-104.4566927402038 -85.09922011561399 -1.3134434226392786
-105.82741544115102 -85.0880907470187 -1.313240228470915
-107.24981418178416 -85.05487079752788 -1.313006381308609
-108.67484561553799 -85.04961220955708 -1.3130017018124824
-110.36346883346134 -85.04342925561939 -1.313076381557636
-111.83877628347157 -85.15452055646712 -1.3142990415012736
-112.93846678507597 -84.56300602760388 -1.3134350361795866
-77.31606176614702 -85.02615041998816 -1.3270470300738244
-78.41660860798567 -85.12484516871704 -1.326331366810853
-79.25146260207327 -85.075226257794 -1.3218924070846356
-80.98178969086014 -85.09332236556727 -1.3227368638532437
-82.33116731052029 -84.96955225979424 -1.3200165485727935
-83.69850725908961 -85.04637323351658 -1.3178746757145652
-84.96527235037827 -85.12552980217912 -1.31593659652867
-86.18530402050428 -85.03752488043723 -1.3136981931183103
-93.60589686639211 -85.09671262628804 -1.3100603269693076
-95.0515599668065 -85.07261637331737 -1.3106494270217524
-96.59229422037981 -85.07346869441044 -1.311388373564636
-98.20815961676672 -85.23296312716826 -1.3125559215736942
-99.77653085411436 -85.11787401079998 -1.3131213230370176
-101.16785522673155 -85.07619877736295 -1.31010436099089
-102.71708919558512 -85.02721462521495 -1.3135535792281434
-103.8009532834147 -85.14482386721966 -1.313648050991503
-78.78440048381096 -85.14375451023331 -1.31678724324444
-86.8001586409802 -85.51403601555626 -1.3135231527521911
-86.8380142805082 -84.96848235682661 -1.3071688353145405
-91.94939451853226 -85.07255101528996 -1.3047933114445252
-92.8348392552468 -85.20001113401509 -1.3095995101609685
-100.9136269160314 -85.30133968040552 -1.3057762797433725
-86.88487309832936 -85.22696913990258 -1.30090657366884
-87.5969947449782 -85.15197406876341 -1.2950808044340296
-89.28981197396332 -85.20552254347335 -1.294303355371751
-90.71048526108827 -85.0999010737953 -1.297919111180088
-88.18569813162215 -85.93052038038896 -1.2952626164862218
-88.59035637799818 -85.75774903474799 -1.2947172722892457
-67.39804681443947 -82.69989253741923 -1.3329758144163584
-68.36203680547854 -83.31455542441894 -1.3328926484399868
-69.63674833058397 -83.33185978643264 -1.3301491263706675
-70.95539910915957 -83.31965102693555 -1.328614312291207
-72.35131889254973 -83.42898540323549 -1.327404317704585
-73.81606449151766 -83.53547994469896 -1.3262585856791602
-75.21768226989232 -83.42770980300685 -1.324653033985649
-76.59233649710868 -83.26890353076728 -1.3230307177414067
-77.71479393764288 -82.97727162262908 -1.3214312616525525
-101.65314865666856 -82.68506267292558 -1.3081287107877229
-102.48555514796462 -83.05114770046117 -1.3087858785905533
-104.01287242122743 -83.35625432869651 -1.30910679448142
-105.51564683480086 -83.5881939180325 -1.30940241983654
-106.99303744490676 -83.4271830433848 -1.3087873564365824
-108.48747311582827 -83.42747147588206 -1.308632966502095
-110.04195967026823 -83.44535899420426 -1.3086488317171434
-111.46821841435423 -83.46563430708032 -1.3087358245193708
-113.06102579002912 -83.52186783172984 -1.3096712799048489
-114.15523776146026 -83.04192548624987 -1.3092269964338639
-78.10249451217891 -83.6590201369191 -1.3228477569728685
-78.95297711796775 -83.41872023083266 -1.3172636978346428
-80.67433406377351 -83.4106475060089 -1.3187782366294878
-82.05098567662597 -83.5367366349809 -1.316703896983685
-83.44641595989181 -83.49870596832028 -1.3142812538543778
-84.66461649471107 -83.512713789742 -1.3123202054450451
-86.01337938305208 -83.4547477012121 -1.3100607721823292
-92.29687360358469 -82.69226920146062 -1.3038685073876193
-93.22513047985596 -83.40367612554499 -1.3061903617491457
-94.7250240608865 -83.48801211104704 -1.3069692962073407
-96.47708102823871 -83.41878452909941 -1.3075693900627932
-97.94678611005811 -83.43719051576629 -1.308278593955838
-99.53672980608289 -83.32805460064871 -1.308842294750017
-100.98266609622861 -83.46162093966763 -1.3060358760405344
-102.39258490507066 -83.69858552117068 -1.3103892830230328
-78.7197317389534 -84.04594917296001 -1.3139250261521147
-86.70247354327594 -83.3923799430989 -1.3033313062225835
-91.56474885952694 -83.5524074189629 -1.3009475411402267
-100.45967783968644 -83.5510083549823 -1.3014503112160947
-86.77731726422431 -83.3975554034967 -1.2964379739356748
-87.60860089411267 -83.51279654413904 -1.2923760375911095
-88.96931500076651 -83.62535492433216 -1.2917718170550465
-90.40467602131115 -83.4892597867382 -1.2945688608273878
-65.76909800391033 -81.1814491630494 -1.3298167806574102
-66.59198805615907 -81.65922536982295 -1.3296452872862976
-68.05839090686877 -81.68738869492672 -1.3270140226523324
-69.29920106929413 -81.75913527805263 -1.325869081383204
-70.69499149958972 -81.74983310057831 -1.3243511409527617
-72.04939954783613 -81.87066981194668 -1.3233684718331304
-73.54277464589552 -81.72414787945546 -1.3215790026941956
-74.92544128549706 -81.67932603256747 -1.3202988322139377
-76.30094695172559 -81.74535694925169 -1.3194119809530749
-77.7833180584524 -81.88613303087476 -1.3186450042127282
-78.49999496772594 -81.55953028120278 -1.3173129378864845
-101.46197265609102 -81.85432649997172 -1.306160154430262
-102.24540238841028 -81.78627176140115 -1.305779018011007
-103.79680772655522 -81.81171448624704 -1.3053969349676813
-105.25217118640701 -81.91047240583194 -1.305234423254417
-106.75843781254804 -81.77465878159157 -1.3045584237282584
-108.14065861614853 -81.63014053799517 -1.303984572681781
-109.62681303940437 -81.82587857060093 -1.3043323933222388
-111.25294329707089 -81.83089013390779 -1.3042667329457998
-112.7677634205561 -81.76940267288472 -1.3041030532287081
-114.29627011963973 -81.88035833613736 -1.3049347269131446
-115.36043762724884 -81.38120951228696 -1.304291303155465
-78.72071297031965 -81.74769722089806 -1.3131261321784762
-80.42898604007661 -81.66066329069032 -1.3146115187378664
-81.73147830927115 -81.76378792473453 -1.3126349736581493
-83.04957342504676 -81.69726397935791 -1.310339221513294
-84.3814763370688 -81.79467022918001 -1.3085356250438454
-85.72624145401738 -81.73433043061341 -1.3063019079078213
-86.53645582131239 -81.75316619951622 -1.304352100921592
-92.03154678481464 -81.5212009950706 -1.30112225775705
-92.95150646125971 -81.74526229659557 -1.3024855130598503
-94.586744715207 -81.7220304415855 -1.3030570787062175
-96.08983262299171 -81.72090755681506 -1.3035981373309011
-97.59621827795114 -81.79814707306541 -1.3043965396566495
-99.16626673031055 -81.75957406854921 -1.305074647512857
-100.67174882279988 -81.79564644798376 -1.3025358214595104
-86.58344115419128 -81.85124719792648 -1.299898935557982
-91.10129758616519 -81.94660249181283 -1.2965653603970153
-86.70252147616188 -81.92317881430253 -1.2932837902453742
-87.3550337558894 -81.95730663630971 -1.2903174017549681
-88.8555050033999 -81.8745655583493 -1.2891589149282636
-90.09138331159339 -81.77831098425254 -1.2912475191600135
-63.9752254538878 -79.46850993705144 -1.3262518360138578
-64.89530574533842 -79.99029425351864 -1.3263354584648386
-66.22038044918084 -80.09333322575709 -1.3243425368045352
-67.66838686532502 -80.0085091863443 -1.3225434008012187
-69.0665644119348 -80.08349375060821 -1.3213251366507885
-70.44233517020606 -80.06895098625616 -1.3199553342382944
-71.86810137091484 -80.1195659590782 -1.318791075253003
-73.16879928510028 -80.10861643898012 -1.3176900768957909
-74.5784320097162 -80.06164015038735 -1.3164930224186349
-76.04900504938023 -80.14836960996556 -1.3156000336261413
-77.53492903501045 -80.05915016197997 -1.3143095687772794
-78.64370340920247 -79.82383508234814 -1.3126783567871954
-100.82814262022917 -79.88371007176912 -1.3013402073028808
-102.06547310491531 -80.17007250102888 -1.301953409000321
-103.4110586632894 -80.02998037265478 -1.3011803296982378
-104.97165148918847 -80.07393346604532 -1.3008318312036313
-106.5064649154728 -80.16210377804677 -1.3006199576260058
-108.0383143983899 -80.05995894616652 -1.2999923886996556
-109.46608646251165 -80.15570705590025 -1.3000035788946662
-110.84837648257165 -80.13689966098511 -1.2998015962210605
-112.34822328192033 -80.19622418366416 -1.2998534396457444
-113.86419998154446 -80.20405493932704 -1.2998307462097285
-115.5398812534979 -80.35044501032357 -1.300930229707812
-116.66038719083214 -79.78958019435666 -1.2996264147691166
-78.44517397126208 -80.15924749636638 -1.3091210647602767
-80.23192900877099 -80.03201679649742 -1.3107551691534827
-81.5725712388295 -80.07787843086425 -1.3085998974924953
-82.79009628163284 -80.1128048798718 -1.3067475784613618
-84.25949874966093 -80.12862063326773 -1.3045933066148716
-85.57125959352078 -80.0875239311263 -1.3025023675209515
-86.36196163343477 -80.09496353858022 -1.3006366052179412
-91.75047997567218 -80.24360859566787 -1.298152715291911
-92.728746373367 -80.17301723925814 -1.2989737469713538
-94.39253432264961 -80.18365012247143 -1.2995805798171025
-95.83207645585533 -80.3034865272506 -1.3003274341345967
-97.51122632665361 -80.24102453716213 -1.3008650193580367
-98.96567331546854 -80.252182860021 -1.3015910037896024
-100.41051211326872 -80.22481269596256 -1.2981087423548263
-86.4563855185036 -80.14910470420621 -1.2950441478594026
-90.59532024006634 -80.11014620222456 -1.2918775940163707
-86.63544368036074 -80.43089362325286 -1.290329392269502
-87.22517252433686 -80.22237663393109 -1.2877320507284093
-88.72211850284576 -80.15139855707022 -1.2866086658710503
-89.78914412122157 -80.51046256009319 -1.288564240452846
-118.09024749090636 -78.01939075234513 -1.2963572501896594
-62.224953676449715 -77.85228739994594 -1.3233777163604175
-63.30743082435145 -78.39547382507139 -1.3232482581981895
-64.60998778314008 -78.44912821368543 -1.3212772113817832
-65.90381350121794 -78.4291597532602 -1.3198716286686278
-67.32984305077142 -78.50903225119778 -1.318662892007177
-68.73090107901557 -78.36683739391869 -1.316914065616454
-70.13639085545574 -78.4636108398955 -1.3159301160792911
-71.5930940573934 -78.37241884407361 -1.3145232846904953
-72.98349253240607 -78.62911554990038 -1.3141061731259203
-74.39192501176056 -78.49416575891966 -1.312704346347088
-75.81601996324069 -78.6143702346345 -1.3119775571429915
-77.25563527979536 -78.43509122999585 -1.3105276829910477
-78.9082682819113 -78.54288056191467 -1.3090205783785513
-79.44206473634159 -78.35071580826069 -1.3078247773979632
-99.28746955991019 -78.16544863203997 -1.297093373215675
-100.31208663127391 -78.53276603546405 -1.2979901691199638
-101.77921473733974 -78.49574766144406 -1.2980446212452352
-103.19493249157148 -78.46014389829223 -1.2974823215081128
-104.7223440405559 -78.48825648753767 -1.2970501082736814
-106.22942091743238 -78.55597590171517 -1.296777187030735
-107.62790474967305 -78.67733501229877 -1.2966851603898861
-109.18311291243946 -78.55867554936512 -1.2960053097662922
-110.59761110968381 -78.52304180499748 -1.2956430956463982
-112.05656865790706 -78.4722606036548 -1.295333310414581
-113.53542116136362 -78.50022745339639 -1.2952868668648565
-115.00151792658056 -78.57571442237993 -1.2953970412980707
-116.6878070064193 -78.62578119405293 -1.29597458974319
-117.8208506258815 -78.23496138283251 -1.295409215290752
-78.0927867896784 -78.46777016159189 -1.3046992270422335
-79.97309631079168 -78.55485938270007 -1.307413267206383
-81.29772456991572 -78.47535102020282 -1.304984138753256
-82.5795594751848 -78.46967391903583 -1.302942495167965
-83.93036970837362 -78.50169545403097 -1.3010075079994827
-85.28257707248636 -78.46416886088635 -1.2989118478967823
-86.18718748436511 -78.61195380367853 -1.297416140741926
-91.38789717349466 -78.46797698869193 -1.2940952897346725
-92.57682270802498 -78.52694924636577 -1.2952759696991683
-93.94136385810368 -78.49393985615141 -1.2956479383396702
-95.58233806149437 -78.4109674041207 -1.2960019371241729
-97.04088244076465 -78.5949497029042 -1.2969837027383493
-98.63568057891437 -78.4874241362202 -1.2974736370624858
-100.18130806529408 -78.62509480513916 -1.2933135732063243
-86.39385541319412 -78.63319103661836 -1.2901924319560922
-86.85135341688616 -78.36086863364861 -1.2854997712196985
-88.8815848914389 -78.21361234233184 -1.2839801974792948
-90.21913036807408 -78.64268904170126 -1.28838838173539
-87.43074651693726 -78.6775488916211 -1.284725544447392
-88.40655747996496 -78.6458635490686 -1.2842602688320985
-60.63236755540529 -76.08167488969059 -1.3212411990674697
-61.562434129904375 -76.99792976236057 -1.32290736213997
-118.56567823531365 -77.37128688763731 -1.2946144731713838
-119.369108505657 -76.51056200159833 -1.291804327526195
-60.615159959086895 -76.33617998529306 -1.3205287221920645
-61.50545794688422 -76.68175826092383 -1.3198413457729725
-62.89130692095816 -76.7820681573853 -1.3182676682382757
-64.26871985822717 -76.67633818377111 -1.3165709923199103
-65.58305407039636 -76.73848197718303 -1.3154652630063846
-67.0234461095779 -76.81923194394409 -1.3142957140761862
-68.57032184117679 -76.80374839991731 -1.3129308390679844
-69.8277225423094 -76.77283304272244 -1.311850633138059
-71.34842238072886 -76.8609845017746 -1.3109057658888588
-72.6789831624958 -76.73934680473221 -1.3095979592996563
-74.28451165272988 -76.95095263175682 -1.3089779770830878
-75.57277978804518 -76.71594417230025 -1.3075221374247619
-76.9841896375116 -76.87457580410656 -1.3069399649057707
-78.24643678104272 -76.86072965259274 -1.3051906157050182
-79.34667473706874 -76.74922712170215 -1.3038597198325337
-98.84262625019427 -76.77716173948917 -1.2937470055431024
-99.88142472548564 -77.02723572818462 -1.2943996789706684
-101.55667799157584 -76.90432613836553 -1.2943572941788097
-102.97538872217802 -76.96118807544431 -1.2939913980961306
-104.4071444250355 -76.88493164117163 -1.2933117869013966
-105.88934907862121 -76.87623939554275 -1.2927981884282669
-107.3054038981059 -76.82226529635413 -1.2922429638821913
-108.79527501228593 -76.85942866264503 -1.2919254759202927
-110.25763965259216 -77.00707130732319 -1.291910613976577
-111.76684517091866 -76.86579487965372 -1.2912251309146792
-113.21077672110061 -76.88260863903923 -1.2910675374367084
-114.76027564168189 -76.95998156919529 -1.2911207309429569
-116.21695441478127 -76.8429408410549 -1.2906893317759234
-117.7958712049444 -76.95210583665877 -1.2910549294254987
-119.02991642240566 -76.59200765221003 -1.2904838951610644
-77.76538009630272 -76.8165686062724 -1.3001192954113074
-80.05400942196155 -76.80670923667424 -1.3027982342473066
-81.10621646949748 -76.85275164666882 -1.3012079342470164
-82.34355562020593 -76.86165874006491 -1.2993114597802466
-83.8040779371089 -76.71839330227117 -1.2967893523591865
-85.04377653115873 -76.88095149929532 -1.2953337832152365
-86.0156014756949 -76.77987001720516 -1.2929939139414142
-91.04141163576226 -77.01384441997538 -1.2906286777897482
-92.19131687664289 -76.74895993822088 -1.2912019279868034
-93.85211426041649 -76.94677830593282 -1.2921941079909978
-95.33990385317641 -76.94662470137406 -1.2926813911956359
-96.95158935758883 -76.93460548048395 -1.2932518157307036
-98.18197090452041 -76.90809210643897 -1.2937187659938418
-99.86412871390608 -76.86562893256375 -1.2886130251625274
-86.25899596149682 -76.93416822123638 -1.2878037462916199
-87.03449374701385 -76.89300481608146 -1.2826330475141543
-88.37597885424239 -76.92461940949607 -1.2818198966128134
-89.97559922146509 -76.864984916036 -1.2852981839394968
-58.92010440485015 -74.59852526109393 -1.3182663921133244
-59.77278112148745 -75.10625057411828 -1.3192773552353245
-119.5679477042476 -75.40363306937239 -1.288953321213993
-120.3373750714407 -74.99591466406531 -1.287489347518715
-58.8553565142597 -74.61384757394019 -1.3169872445776676
-59.854774363337896 -75.01302561520961 -1.3167775362426637
-61.22525023753978 -75.1313611844469 -1.3152711106293422
-62.69248943498083 -75.07812241271324 -1.3136416560719877
-63.999230884685204 -75.02419458153159 -1.3122388846979707
-65.42598442215713 -75.21845015871766 -1.3114508851198594
-66.74108269023375 -75.16618379660555 -1.3102129396292264
-68.30001932302076 -75.20770394747585 -1.3090765571736271
-69.62387253401917 -75.17614022424999 -1.3079796338979885
-70.99041233520009 -75.11684645766482 -1.306809443450273
-72.44471204925955 -75.0791225877881 -1.3056922497428531
-73.83383242953073 -75.18316853269913 -1.3050233843106738
-75.26520071884686 -75.10584891027725 -1.303867296711585
-76.65765979860655 -75.11483921843174 -1.3029224681869778
-77.85260349641808 -75.2598992282091 -1.3015170088279795
-79.38952542031149 -75.09303193553049 -1.2995674191131983
-80.08100035425208 -74.5233546470526 -1.2969845220522527
-98.19790871573491 -75.12988486226355 -1.289774460736313
-99.76494763970564 -75.09111025414725 -1.2896188600728131
-101.31168435063053 -75.19838644588324 -1.290412975806417
-102.81138665476136 -75.18616403279188 -1.289875092704479
-104.21140637542908 -75.18768451213745 -1.2893917633444618
-105.67359006784815 -75.20073259406766 -1.2888797045719356
-107.08697720150386 -75.23623010449155 -1.2884697092932558
-108.58403469758636 -75.35050357208698 -1.2882938941327104
-110.04037862695202 -75.2696490679177 -1.2876971578038239
-111.53739321798606 -75.25357166805964 -1.2872697711510785
-112.9200304073067 -75.23056204226094 -1.2868928956810366
-114.49320869433208 -75.1724181915381 -1.2864651308413027
-115.95660609538115 -75.21906122647441 -1.2864164466472925
-117.42651450860785 -75.30976452553736 -1.286521555533228
-118.97827058382701 -75.29154403093351 -1.2866553204772824
-120.17234067406258 -74.91149798061228 -1.2857644112392517
-77.5924645822051 -75.15381083242357 -1.2964612165554472
-80.0016096988939 -75.49274667942248 -1.2995622461002074
-80.82112972786534 -75.1711234030618 -1.297452452484814
-82.11833587931227 -75.13528154809624 -1.2953855626399151
-83.41678065989143 -75.22058855877734 -1.2936341881941957
-84.81510562386326 -75.20681604297724 -1.291543812641383
-85.9037522763604 -75.11283558822302 -1.2890610781007084
-90.63099473277813 -75.16214943664288 -1.2862981182683644
-91.95282260842501 -75.11390393937887 -1.2875440040608066
-93.60626022584816 -75.21417784721913 -1.2882438936023786
-95.1322248370005 -75.12484311047949 -1.288583946995676
-96.61997881977877 -75.09495156789157 -1.2890481624948211
-97.68092977277469 -75.52355513998283 -1.2904158627110645
-99.61681445105685 -75.2249207442754 -1.2848564828657258
-86.16936613743309 -75.36029759763166 -1.2845250831349604
-86.90597999134275 -75.20240321982644 -1.2801834729596673
-88.19706373674087 -75.37870867271425 -1.2795654721268093
-89.63143637152204 -75.33380397169812 -1.2820446527521865
-57.24709215372522 -73.10613215119159 -1.3151648028376457
-58.076868567218014 -73.52001533289742 -1.3159099836127066
-59.133214130295535 -73.87891604011084 -1.316393718555444
-120.5313353954788 -73.87669003104031 -1.2844481341246587
-121.59556539511055 -73.38496392341777 -1.282831556333227
-57.148079849985784 -72.90649065740432 -1.3135118211253214
-58.14113466509196 -73.33157907353909 -1.3134821548463198
-59.42823602819378 -73.59926867235299 -1.312829883045197
-61.030902134529015 -73.48296622564149 -1.3108096881676028
-62.27824622320938 -73.4936669460785 -1.309645042407329
-63.67594395240615 -73.39821948856418 -1.3081582354830872
-65.1221853725072 -73.54922580098747 -1.3073757279460003
-66.48354335137304 -73.54835689003099 -1.3062882450820308
-67.94131756567384 -73.47003538279287 -1.3049667795896625
-69.306799289611 -73.56459667822455 -1.3041840301045868
-70.59182692856083 -73.50648458261769 -1.303160392942452
-72.26083620959173 -73.43601190735262 -1.3019100048067775
-73.66277007221412 -73.56238848498553 -1.301255837389219
-74.90424969436047 -73.3240995173742 -1.2998218415334526
-76.3972584880799 -73.55271176975957 -1.2993612050743975
-77.81794768408788 -73.41283198028708 -1.2966954512426283
-79.22401496781137 -73.55299516647725 -1.2959264678336893
-80.09696495012408 -73.27944378197658 -1.2938362854503678
-96.93392423044864 -73.47757479920375 -1.2855597466527313
-97.958844774349 -73.60790867137652 -1.2862633936759864
-99.33996284938985 -73.5792217121955 -1.2860643444251574
-101.10398552130245 -73.63950036583633 -1.2868508478506608
-102.34291663345178 -73.53217746624456 -1.286138333010678
-103.78126294098274 -73.52255929713345 -1.2856182370391038
-105.39247450614536 -73.53757730897576 -1.2851038879795935
-106.94666025003907 -73.37039038693302 -1.2841345898111938
-108.33120855478084 -73.57728012609283 -1.2840932913258507
-109.86894398023705 -73.6093130312362 -1.283685397591245
-111.17099770820778 -73.6098803593556 -1.2833277286054667
-112.68176097262406 -73.6940296625608 -1.2831415557474959
-114.2140515148906 -73.62643815674808 -1.2826048423560252
-115.62125788036276 -73.63977448582105 -1.282338448255529
-117.03938458696175 -73.4481936124413 -1.2816464651490143
-118.52474671949574 -73.45433879808164 -1.2815068014999926
-120.21774874661907 -73.619966990391 -1.2819418470427966
-121.2673279156013 -73.4571442908547 -1.2816489864747584
-77.27311320280239 -73.60140347486126 -1.2922451201379614
-80.73108222037374 -73.7063726559062 -1.2939407337713753
-81.86159396512522 -73.6953832762919 -1.2921719941516092
-83.11713356532445 -73.54871424838146 -1.2898805443861605
-84.5947172289069 -73.60920196508165 -1.2879953975424807
-85.74583572080527 -73.48399336846316 -1.285197286298028
-90.30551209107561 -73.54269197917716 -1.2826385344368776
-91.79266587097146 -73.5921670603329 -1.2842014360032872
-93.32476327402135 -73.55865460006383 -1.2844236662943125
-94.81763332562252 -73.53304254360327 -1.284901333178363
-96.17573214535797 -73.58759843383157 -1.285531170629896
-99.44148640396114 -73.64401873054317 -1.2813140810234813
-86.08152694917442 -73.75748674836069 -1.281712051823547
-86.76594374868785 -73.55989449134744 -1.2778281372317055
-88.14488659973702 -73.64807950557862 -1.277073769566241
-89.20766093996009 -73.43971319726465 -1.2781531475915737
-55.38251566003833 -71.24207483507278 -1.310997166466706
-56.450180573234505 -72.03876243050857 -1.3128010017784657
-57.54238684207364 -72.42079386700823 -1.313075917676935
-121.92112489022183 -72.09561831175557 -1.2793252761142213
-122.70169997910244 -71.90765398375255 -1.2779593353426517
-56.50970950355424 -71.75375457526896 -1.3105571349894747
-57.66331807161882 -71.88724238941049 -1.3096430546160591
-59.08645499904834 -71.70209983633228 -1.307724716144627
-60.60129486173334 -71.79916286892106 -1.3065647463042886
-61.879144382459415 -71.8402771302477 -1.3055850120914176
-63.417299006201105 -71.69552962346674 -1.3039787321002125
-64.7530009680114 -71.85679689087993 -1.3033475149397198
-66.39844541135086 -71.86669662165365 -1.3021068694123408
-67.62716654950482 -71.8719240484321 -1.3012274490523548
-69.12884797828555 -71.75940857327242 -1.2999863636560283
-70.52844872841155 -71.85289855551886 -1.2993003082133745
-71.93747080419915 -71.83627618819989 -1.2982899084417974
-73.3539834710553 -71.86641908665668 -1.2974087047579452
-74.75611418382694 -71.7923842534477 -1.2963871880731754
-76.2647400637605 -71.92797069034111 -1.2958350668480292
-77.49450940249648 -71.755027670744 -1.2928254385414055
-78.94085820732505 -71.92812088058852 -1.2922066935938659
-80.09921027610972 -71.80987871138875 -1.2901241216165071
-96.33901849900829 -71.78879776906183 -1.2815293393076503
-97.68284721124832 -71.93197020372574 -1.2823657819989536
-99.31821633366138 -71.86516352372985 -1.281517212535911
-100.80463561611839 -71.92682589025183 -1.2832823887477824
-102.1005116078816 -71.9483972516974 -1.2827153955151136
-103.67190241524273 -72.02603758740172 -1.2821849800994094
-105.09496868692182 -71.8519806024923 -1.281242240364735
-106.56244291848512 -71.87239008450878 -1.2807776121635115
-107.92651549238659 -71.85453681701202 -1.280244822505871
-109.49533233880942 -71.96076249534815 -1.2798745647185241
-110.92530854891984 -71.9568423708679 -1.2793618203309847
-112.48547932672861 -72.0016359016216 -1.279032531350472
-114.00302680176388 -71.95121279068569 -1.278494778452637
-115.2478168806011 -71.88352311854224 -1.278015141823184
-117.01549080240207 -71.97979947362798 -1.277851198890377
-118.31930076362572 -71.98958424924852 -1.2776739857991557
-119.75807962008216 -71.88543289042556 -1.2772314035765335
-121.24073151207767 -72.01655959097529 -1.2774879683859333
-122.40139460130695 -71.59281574519005 -1.2763214994717396
-76.91292739878968 -71.81537390059421 -1.287566616562274
-80.78269845982253 -72.09323982837728 -1.2897576527933985
-81.65555100651946 -71.88770008924797 -1.2878386633082213
-82.93855270554552 -71.83854031829884 -1.2858586370682763
-84.307024892813 -71.8882537853765 -1.2842599963180925
-85.66875800688355 -71.91254776908815 -1.2814588660075172
-85.96966033783731 -71.2681605580443 -1.2763970955075667
-89.88251050689306 -71.92246702097194 -1.2788572401191889
-91.52080515052958 -71.95493837091864 -1.2806034431174975
-93.01202921193895 -72.01282857710565 -1.28088005699186
-94.4911047815026 -71.79407725373524 -1.280807125429986
-95.64153411462209 -71.95449781429683 -1.2816095903443547
-99.05952457188239 -71.80477852704409 -1.276043235175628
-86.06846574343233 -72.7025686562777 -1.2789742820304528
-86.64128865216814 -71.91706224938521 -1.275311655067376
-88.00567047436445 -71.94983970788061 -1.2746600662186611
-88.98490207804535 -72.3027740421892 -1.2759940290643692
