# .PCD v0.7 - Point Cloud Data file format
VERSION 0.7
FIELDS x y z
SIZE 4 4 4
TYPE F F F
COUNT 1 1 1
WIDTH 874
HEIGHT 1
VIEWPOINT 0 0 0 1 0 0 0
POINTS 874
DATA ascii
937.3335327691274 945.4812952812172 13.905728450685444
943.4158161480781 949.623596892736 13.95605118700597
947.1436790749493 952.385301298532 13.98457354856954
985.2077437333886 971.9960096543407 14.226500670743649
987.7814944321668 972.6732575262185 14.231315856517025
991.1251930265087 973.5768609836773 14.241676198783654
995.3712303440832 974.7081785200974 14.256048747952983
999.3625133143636 975.7045004532772 14.26685637445056
1002.2362684039718 976.7450942502122 14.277056357507497
950.4153169359809 954.5780318372497 14.0126537351694
956.5906660774615 959.2775091752342 14.070398975663444
960.4679513151976 964.1969866943574 14.118409739008664
980.0656981841832 973.857605762318 14.24061331506642
980.2145114480066 971.2574468745428 14.215344096496844
982.7929059951462 971.4110909159557 14.213769788229044
964.9993614110989 968.8267756848596 14.182471123394931
981.7773467881316 977.4108699520935 14.286159225299949
971.4417239557209 975.3965830545887 14.266724222972059
977.2712128567492 980.7188621825796 14.329250218664903
981.888179197491 982.9133298278732 14.352035601120866
983.1380383950619 981.4126477760783 14.338037421826092
906.2200110892193 926.4455047869623 13.634075167090929
911.5637343660611 930.0403989992661 13.681721748824133
915.8454341240085 932.3630060943543 13.719902171988151
1002.9325373722527 977.85076151682 14.259680022986391
1004.9754074746991 978.7084575885461 14.264202943771595
1008.0506869041175 979.2639020579342 14.26740583276365
916.8783788963998 933.5197227718131 13.720585180896048
922.4035702289028 936.8034540240127 13.763646486861433
928.6012249802341 941.1217290798076 13.814708307830498
934.4995190161321 945.1631408591055 13.862172188982843
940.1870790666295 949.0655272975532 13.907380660712322
944.6276403962805 952.0511532521923 13.94474721867845
981.2081976435798 971.1624261630178 14.170333975267155
984.6911964077412 972.0929287857658 14.18367156939938
988.555218537428 973.2293932158318 14.197746905982202
992.1210324023194 974.2784729915974 14.208733575355097
996.1380334999948 975.3931556657518 14.223369488557534
999.9987607967875 976.9030986780239 14.237598268671256
947.5827010639885 954.0901814971714 13.96833498457409
952.80178099566 957.8460827757839 14.015375065963307
957.3063193144742 963.1113942954914 14.06944591785486
976.5539326017225 972.8079755758743 14.189320013832214
976.4564437584813 970.1714810668085 14.159511353482928
979.4625155669635 970.6571985200035 14.165488581308304
961.8251934056018 968.0620106649453 14.132599924190588
978.4888038458188 976.5487208883488 14.239276338147832
967.791083654654 974.3289233407663 14.210030592760956
972.6821732957756 978.6647743498173 14.263066650623685
977.7136872395546 981.3445323099339 14.293213510461731
979.3448683219767 980.178829726354 14.282370765948444
897.3689624745325 922.7808019904749 13.548823902353668
903.0056404159023 926.3719849001036 13.5988219822756
908.1636863536036 929.757737222339 13.6370329869043
1002.5824602366183 978.8499585690572 14.227334425187673
1006.3285099357983 980.4519106174233 14.243476924762899
1009.9534562574449 981.4435096232487 14.254916703907908
1011.318435012151 981.9095307367663 14.244678476583985
910.6348735904467 931.3807569202996 13.653197190185532
913.9818070790704 933.2737540106461 13.679200993896368
919.5190928063498 936.6840206191674 13.720613155823049
925.3178879033811 940.5287354357721 13.767454768810053
931.5664166412669 944.7863911399733 13.816225445815233
936.863455555749 948.326303506345 13.85815017381591
942.4356566687685 951.8262345645709 13.906700397266572
977.7696379528309 970.2745700478043 14.121139811753169
981.2708360261155 971.3609532994624 14.133951189054816
985.091925127249 972.544724148783 14.14966869062909
989.4504448760491 973.8660388947342 14.168044646139354
993.2795510471731 975.0903299539668 14.178493713488056
997.8051607608302 976.827783086063 14.203529462402654
999.7814765110348 977.9341137591937 14.206252555729506
945.2637466278834 953.8424320452053 13.927632057267854
949.9179839302592 957.3284925266375 13.968947709664118
954.2995975423482 962.2354879037294 14.022665502188424
972.9007988142265 971.5850996145996 14.13531560673811
973.5354212816065 969.2708765983896 14.113958389155252
976.1952519684731 969.7868728366251 14.123072120666603
959.2968668575776 967.658519644495 14.09239049905819
974.6637341439492 975.9824281045899 14.188490328582237
964.75275409627 973.2044252198831 14.163881228628618
969.7563151180719 977.6656665350889 14.213536969584922
974.4103163195665 979.7907131561527 14.237650239394315
975.8245632167082 979.261831629148 14.233516771832663
888.9532266924784 919.2559981838632 13.467576078926081
895.1590319584674 923.2816159107858 13.522031911490027
900.3962295544559 926.5580928047656 13.560546671491343
904.6218750241159 928.9789141802269 13.592880039242612
1000.4517003176163 979.077993596733 14.186130042010292
1003.4063425096364 980.2559614736416 14.202697309898271
1007.9844434899499 982.1873086857761 14.224138202471243
1011.6211937925756 983.1490039851238 14.236376258191996
1013.1478121637947 983.6836513630874 14.224787962654046
907.1312971554662 930.625255492299 13.608952988134089
911.2338106173178 933.046936091653 13.636966180400767
916.0885438676829 936.1175251602807 13.672202762125517
921.9535058194745 939.8291264265926 13.718436370048524
928.2561787586291 943.9642073104708 13.76934799878449
933.5287879147745 947.5575301705543 13.809214636522995
939.6380775160541 951.5030624510025 13.858303123621004
942.333057272363 953.5845427898854 13.875145935012421
970.7431358386644 968.3291948333 14.052218439649256
973.6150184616539 969.2000324350256 14.068563849618817
977.4526280608292 970.5004489420314 14.080720365881108
981.6957445229841 971.8499240563528 14.100231049746645
985.7430691273261 973.1207432478099 14.11609976682908
990.0474689267221 974.753425729465 14.13133386443936
994.6657780731668 976.4972942431859 14.155581697623566
997.9845344623579 977.9825319290305 14.174196882015433
945.7718269315227 955.7144083943548 13.909247804100561
951.4106808915408 961.5197787198662 13.977483210687739
969.2445107715503 970.5454512358871 14.08232298259529
969.4164377636953 968.0995210766318 14.056093427109667
957.9520722345887 968.8344717244471 14.066950873173322
971.2508863844283 975.4513989898113 14.14309041076987
962.0200333671659 972.9058550150842 14.117560443868094
965.1729096280462 975.6709596380281 14.144605931304596
970.1621141127853 978.1252410262105 14.176529161304423
972.7756711374582 978.4066548323681 14.190701181210867
875.8982406435921 913.1884796651716 13.341912176320754
880.9312565093174 916.0326344715863 13.389817663084008
886.1667255897019 919.6092731530252 13.435202071678887
891.5441630124355 922.9267938069551 13.47303375150237
897.3814010026099 926.2413785953735 13.517683387590711
901.242308249028 928.7604651968792 13.540269513278988
997.249524875027 978.5756679700174 14.141877229948076
1000.6451476091519 980.1247451489448 14.159577910026577
1005.2565548479647 982.0852947518702 14.183497048836644
1009.1777490514725 983.8181053352671 14.201665282752574
1013.4144149323969 985.1049334336216 14.218428399450357
1015.1349084198191 985.6609403107274 14.213776173190977
903.8268788074073 929.9948266406676 13.562893712034292
907.9937386296446 932.4746135671327 13.589893681702199
914.0584466523821 937.2980923226157 13.648430114750374
918.9334909619921 939.3704435136619 13.671476208247848
924.4249779572635 942.8432992287768 13.717431737722112
930.2945617002829 946.826458216286 13.761826589777494
936.2548685695251 950.7095313077289 13.808574769134124
940.1612590525265 953.5181216192763 13.834974379740817
967.0275589207761 967.3775347881793 14.004602765395711
970.0935703652716 968.4097679673956 14.01706463485406
974.5983314069122 969.9337202062541 14.034935670063566
978.5651127479997 971.2251631610849 14.051142601415368
982.7616786584978 972.5571064671807 14.069097674903054
988.8775808540811 976.2121828635619 14.113480408797031
990.9361369742038 975.7539849106645 14.104541785113925
994.7339192830785 977.4354481534822 14.127519930448798
914.8113780378753 940.9014653145549 13.675137480378545
943.969384064418 955.6907724393038 13.874703702516626
947.828910655857 960.0117249673631 13.92237557759174
965.7718543709481 969.7139690246681 14.032923845682639
965.6849794052556 967.077840532764 14.005476263065574
991.1949682024442 980.5838027512502 14.152563352519037
954.0424332246331 967.3545692459925 14.006598962062643
957.746077740567 971.7637040643165 14.047299480942765
967.7312865691739 976.7286812746917 14.119618340879603
967.7662550352253 974.6555404802542 14.094523581740175
961.9841642949855 974.4191545211663 14.093721235370374
965.8325379803767 976.4669431420559 14.116571605245136
867.5189307817444 909.6811068655113 13.26120677230912
872.597343128126 912.4607628055458 13.311055980638574
878.2753476855697 916.3460239925112 13.358003553253296
883.8431562775306 919.6697955531245 13.398252956890161
889.1058468178728 922.7977559507802 13.436061051711558
894.2783687715255 925.8709592380789 13.470981880840554
898.6956101816664 928.4476795943486 13.500632337420578
993.3057508560794 977.7134344951722 14.090285462448715
997.5418025021727 979.6702471669807 14.11335585360391
1001.882425431131 981.6700289314706 14.136403320986231
1006.150768025452 983.5373688582922 14.158566171460965
1011.1479487501045 985.6795955942431 14.183995540585286
1015.0260521223257 986.8065629042912 14.200244129854731
1017.0053756141165 987.6213542853453 14.195618017333985
901.1817221362473 929.8419307914861 13.518379537398324
905.3623207219026 932.1530357297486 13.548279870698394
911.071942680684 937.0432537169634 13.605035097767725
915.6918766768706 938.6198115182276 13.624370985848753
921.3958228279918 942.4993977435226 13.667436783333372
927.3866965892767 946.3658313634575 13.71523970860553
932.9285743327888 949.9259615698674 13.759462034047786
937.9980537479535 953.2952513858125 13.797345087093053
963.2553860058283 966.404501014174 13.95491066287534
967.0722708587786 967.7318318422482 13.970229439031192
971.144741005472 969.1111285582521 13.98678463060316
975.6491227562865 970.5856334582957 14.008344201257959
979.5480400022303 971.881001925045 14.021084021945013
985.8779477397469 976.2703550695297 14.072187174432232
987.7533501931633 975.1571958554366 14.058045375271702
991.332667728209 976.7776147924561 14.08023433143342
913.770077648405 941.0847624948952 13.654446410798625
941.5741719238658 955.381054472621 13.833722069561928
944.6808267738129 959.7404683398631 13.87199500741384
962.1914854255665 968.8046553258142 13.982477889381535
961.6336895844674 966.0386914212038 13.952992333750604
989.1506912475021 980.2767144880636 14.125030940284876
950.4371042434835 965.92460593007 13.951455371100872
956.7448146938711 971.8145250016361 14.019399994353636
962.600950171875 974.8532247105575 14.056890509941484
963.7740389078896 973.2908183814556 14.03603557198297
960.9830619257777 974.2631647141916 14.067428497068189
962.0342149256953 974.8689529955128 14.070439858133405
859.0902076335711 906.0884717253737 13.17928080280459
864.108447692489 908.8783289566612 13.227403567464878
870.078013542823 913.01237520035 13.276907990819922
875.1639958294357 916.0705309106161 13.312972455968737
880.6428036865696 919.2306962873718 13.353217631690042
886.2701896613069 922.4181801544397 13.39372649645744
891.3391579930197 925.4227209953576 13.426838862372653
896.1689148565836 928.2863170532092 13.457035968464211
899.7786719562823 930.4849761085705 13.476093614120119
980.8279367979115 973.0162068026774 13.975469853890472
984.0568297130235 974.3955230878316 14.000828640957081
989.4248733163982 976.8418883937429 14.03742161585868
994.4933398248799 979.1058721368486 14.070069995250195
998.8604535364044 981.2126618265363 14.091275682169705
1003.4694940862593 983.316228932147 14.116377944492461
1008.1887893325115 985.3903881916175 14.141569910044954
1012.4767893326878 987.238776132407 14.164131236426652
1016.7421429767197 988.644045880029 14.182351179629409
1018.7602535789031 989.3448925330403 14.179096428347123
902.1522433304549 931.3539764410829 13.503048228542742
908.1388742734628 936.8238141809765 13.562013428339467
912.1359692292219 937.736952412865 13.572862493439638
918.2685802699676 941.6722340079889 13.622682238958218
924.1722426141893 945.5523092889241 13.667850579482053
929.3674441437131 948.9152842704858 13.708145617704048
934.9403157377297 952.5432807415926 13.749839493965261
955.9666089533126 964.4694698794401 13.873218036597226
959.3772238475112 965.3226821025501 13.90078566514248
963.5761833098738 966.8096641109727 13.920644095179131
968.1543565276212 968.4242795743564 13.938304409376347
972.0947143738723 969.7776233465919 13.954970456974138
976.0796843206687 971.116905350313 13.968377924634451
983.0008214587261 975.8055485452774 14.027301300629812
984.729261988819 974.3864883247859 14.016492296271498
912.0706338739163 940.9337893555972 13.625888247230117
941.9065591648607 959.2282929422964 13.827493838283687
958.8622589145907 968.1036789343285 13.937072237917537
985.2066261431894 979.3651022189864 14.071512150743455
947.3773668546015 965.4082116599573 13.900732855997646
953.3423353050043 970.350110228725 13.962117987655473
958.2666644574399 972.938180090784 13.995669448377948
960.002837796695 972.044157818884 13.981979996544304
851.506497427269 903.1491300282388 13.107262351272828
855.7093345332539 905.5086033956578 13.146936951137988
862.2061726671648 909.8216926552085 13.198851213441975
867.0436479920255 912.6318904849167 13.234018262545392
872.3583791365548 915.7835664412443 13.271270787600885
877.5785299901836 918.7160402804186 13.30909712109503
882.9329780655742 921.9120003702236 13.34354208964545
887.9089827479652 924.7533920464626 13.37625647558848
892.9363358312432 927.5001761268411 13.410553184197916
898.4441988481068 930.4581346273643 13.449185237991488
900.5146169764644 931.8049141385746 13.457255856135042
978.9647862629511 972.5409886180904 13.949569051469805
981.3802967753634 973.7473951382701 13.962291752045466
986.4174737661119 976.1856679875965 13.991974564179605
991.2449902486112 978.4769053213196 14.021691792982798
995.8294747891202 980.7347046430626 14.045302148631482
999.9345584865787 982.7187963654735 14.06544500160338
1004.7922662225578 984.8296768030581 14.095397414819042
1009.7455806590048 987.039582115792 14.12189139036355
1014.2160640616047 989.0326444735401 14.144183367305034
1018.5501451613384 990.5735554112064 14.165332738696167
1020.5647009751411 991.3649495720089 14.162676578323358
904.9836679776544 936.2249130443668 13.514158604667077
908.6991484254881 936.9605036842362 13.520980627427784
914.4578260244019 940.657981702747 13.567417022597624
919.9374281088964 944.2574324550347 13.608560248307404
925.6341592484805 947.827878416043 13.65335875005209
931.1675629087332 951.422380073144 13.69459798075402
935.1443539238777 954.2498441289255 13.72861824562534
953.3308748392129 963.7797187559469 13.836472129088795
955.8117347261007 964.3180599898673 13.84843309515346
960.2145114720743 965.9123812214536 13.866958083960615
964.3173325173626 967.4117057198192 13.884879586183624
968.497272132068 968.8733762688498 13.904266525666515
972.5719623640872 970.2519545218292 13.919856239750212
979.14260844013 974.553721830852 13.971834935267102
938.9916889732089 958.4634960906968 13.780859271818633
955.416232893392 967.5694851073234 13.89153995303481
944.607967803032 964.6139539828293 13.855383509068078
948.9331230625675 968.1649203133679 13.898312492038178
954.0438737233445 970.9649095865362 13.929629429081922
955.8513334120797 970.5259198104893 13.92226549883392
843.0837676684148 899.8919647147554 13.026719387809395
847.5325341777136 902.2584038250008 13.067563045136872
853.3712096049103 905.9998214775411 13.114520319418094
858.8032513610864 909.2899090289714 13.15157639825
864.1800935446196 912.3794156836694 13.190148667364044
869.304752468145 915.3619699791092 13.225270052372993
874.6419359722123 918.3828369216967 13.262440198985356
879.3491369388794 921.0383773498565 13.293770280478359
884.3359207247108 923.8370072990842 13.325930143675492
889.7229293855944 926.7630771048857 13.36286572231332
894.8683750949126 929.6448593844468 13.394990188665437
898.6496807408487 931.9861231684006 13.417105696316327
974.1171949425718 971.3086584757269 13.886860680812076
978.3293272160238 973.0718526766318 13.914874302513956
982.4902522514001 975.1935614420536 13.936747729143415
987.5915484697274 977.6579586235902 13.967192129755235
992.6598096235537 980.0722882430729 13.998118582427871
997.3971820510391 982.4004258774766 14.023385404367922
1001.9999521414829 984.4953226951909 14.05070283013593
1006.2441356922284 986.4482077961736 14.073541223467513
1010.9106971350316 988.5163792544841 14.099664785185094
1015.5098360643595 990.550112469893 14.124127913187396
1020.2017178601975 992.1324060076872 14.14665153839999
1022.679820972262 993.4340194712524 14.148534198044011
901.8744188307104 935.6468984472866 13.46855773807223
905.5783438671117 936.2601638250911 13.472963970184985
911.3954807850566 940.0303302362755 13.518869611224064
916.5762292403905 943.3459596045891 13.559114472589087
922.6789378850472 947.2139448314073 13.605463009383431
928.0692999365156 950.684625382796 13.645701998379204
931.8855454678961 953.3855668676576 13.677945034388218
950.4605022768171 963.0149299185761 13.79623943971035
952.5411886394658 963.4133563970273 13.799370368334806
957.1164095234902 965.0939720926766 13.819745766736842
961.2772136656675 966.6133868006511 13.840844731460113
965.7063593433174 968.2030149598625 13.858364057878273
969.5638673449092 969.5044299189439 13.874236984846407
976.4554219474203 974.4075855664546 13.931774240639415
936.5924515369512 958.5612433273235 13.740501378711519
951.3018422377622 966.7050700022995 13.83647245355562
941.6502573978534 963.6117698502543 13.807139107624248
944.6943052153126 966.1836229588566 13.832561876043917
949.8072266090281 968.9757747189744 13.864072370024692
952.732833772796 969.5041758863682 13.879227829608189
1023.5287667761428 994.024614131945 14.112568312106335
834.5919393118812 896.3117677455244 12.94471930638648
839.7620164831002 899.1299705560236 12.99145168413599
845.351063178695 902.7061651945284 13.035247405315172
850.238437602907 905.5995869845274 13.069170537955092
855.7081196836839 908.7288771702205 13.108336521768292
860.7688053343836 911.7777394611647 13.141133854822701
866.0628568336684 914.7218924713397 13.178518960294902
871.2021486278185 917.6630230792591 13.211293221277586
876.5564199679843 920.4649424693674 13.250892433089577
881.4003297635419 923.23506166291 13.280570188236391
886.6336978053724 926.0324782746206 13.316793410126468
891.4593199851595 928.7815252458662 13.34514563789138
897.9297669007271 932.5375235044171 13.392437693610912
899.7974250667274 933.8402936354108 13.403239194038141
966.9547503965313 968.9725823802099 13.817119471137742
970.5836305674691 970.3968063780811 13.843066800990966
974.8272779098174 972.1926805997913 13.863615996132964
979.3889710736956 974.4672392137779 13.889854734410656
984.4010074293651 976.9243576797595 13.919822153067885
989.3637396922162 979.3077578590672 13.949880236791392
994.0425448037347 981.5153098886833 13.979150466887468
998.834467990897 983.8813228444766 14.004466025665577
1003.2406317725806 985.9780407213962 14.028600182891315
1007.6899121008676 988.0514345094092 14.05209547491183
1012.2629296712352 990.1046468546789 14.077274644151197
1016.8379453100414 992.1151103584883 14.10310480796576
1021.6350444504793 993.9440119805099 14.126198822882749
1024.1601297203056 995.0125114998907 14.12947124372176
898.5053536733152 935.091999434775 13.420707711881024
902.3889619973222 935.3824052104682 13.426532972519256
907.9458830466724 939.0773007728893 13.468489597884517
913.3275286313584 942.5486222713256 13.509595406027547
918.9617922502663 946.1056221847532 13.552643540931882
924.4892369232665 949.6421039072701 13.593753668116976
928.8370635719768 952.4977403907526 13.631264204590384
946.5025959403592 961.9275395542402 13.740037553086347
949.3774020051466 962.5917693033382 13.749501170964882
953.0853519083878 963.9825064642423 13.765341173147032
957.4703434754306 965.6352140579386 13.78310122701431
961.7248700386266 967.1239083167595 13.805403294033665
965.7857721244643 968.5383203893841 13.819739422245084
974.0469716444142 974.5596574960024 13.89454143704751
935.008393089762 959.179877217487 13.71085423685509
939.0307034097872 963.2722150214396 13.752688542103343
945.7913001338684 966.935419383336 13.792718848970377
947.9040033079029 965.8253956073058 13.790238614339899
942.419529534996 965.4624135255149 13.786398906126252
945.5987752005439 967.0817781421189 13.804920436176479
825.497521780473 891.9260271138413 12.849449003893314
830.0968630173003 893.841444332477 12.894575643037234
1024.1091604950482 994.6581795013493 14.104330281836592
1025.7728514963771 996.162385046153 14.10125417643127
826.8384510845436 893.1301663965143 12.86989483388329
831.1924778307844 895.7211759058234 12.909095022085411
836.8866543764117 899.1670328544669 12.952498206527022
841.9588330434337 902.2247513823038 12.986285911649807
846.9553597848901 905.0745770061134 13.021698051042407
852.4414175359364 908.1903350321234 13.060727393491335
858.07338113519 911.3915409729668 13.098436562293479
862.5678403350614 913.9247578630916 13.12782679080288
868.149597702945 916.9658296710442 13.166164509938708
872.732755734087 919.5820320987759 13.194335062248019
878.7364065753629 922.7395076947902 13.237071426544537
882.925121562909 925.1633347204244 13.26019652998099
888.1393543942314 927.9072434249445 13.296721812465016
893.213077548452 931.0761915523756 13.334048915906967
897.1555374826377 933.4334486661503 13.359370792035191
963.5073597723782 968.0632663064127 13.772455326983733
966.9714241772928 969.4449249073984 13.795042916172504
971.6263513662276 971.3976729225593 13.815383395070187
976.3576959567954 973.7210514281659 13.844454246712335
980.920436862427 976.0242478705953 13.8700429570711
985.7351072524159 978.4068270035201 13.898224976992173
990.2309323658885 980.6323284364889 13.923435620169428
995.0734435084875 982.9603462685051 13.952091225649399
999.9737019683289 985.2459489270263 13.9829345443294
1004.5559188620516 987.5030984558566 14.006404454458114
1009.0709542525902 989.5819388440989 14.031609921925236
1013.9461391199645 991.7567862356985 14.059442398797326
1018.2589399871872 993.7781805734459 14.080706941635803
1023.092030308235 995.7915782820486 14.107408858132338
1026.0278049742915 997.070362923786 14.113932033361278
895.4661381458949 934.8040427846656 13.377000764697625
900.2787842297811 935.4344150477475 13.38454196583117
904.8012132916504 938.3279448221169 13.4200413385522
909.9878695840135 941.6472409854102 13.459698067804638
915.810198387608 945.4526812062232 13.50142729873911
921.1840328124545 948.7488151897417 13.544556199638107
925.5407927739124 951.8499522218137 13.578913249723229
943.2214984976025 961.0984493637105 13.694731127813828
945.3553173678847 961.4832840399469 13.692989020975826
950.2560719820236 963.2616025383644 13.719083069024284
954.3569537599931 964.7904212086084 13.737374915745265
958.7273633662386 966.3811587846124 13.756127520012514
961.9818557388319 967.5269920008964 13.769209874548407
970.7674462744513 974.1363408604633 13.84659542043203
930.7256230945596 957.1034273678036 13.64485272539089
936.8402068101418 962.5796966335156 13.708738058095317
941.5941766692437 965.1357460586503 13.739934711119345
943.5632844459708 964.0382239321343 13.725725393736283
817.6418898902688 888.7979608703838 12.776046721081599
821.1376385457852 890.2260931276229 12.805438842769314
1024.8262284644181 996.326876177783 14.076242623203157
1026.883597668384 997.6681540409621 14.082278152395638
818.4688499137004 889.8750551402501 12.789152010124749
822.967969583945 892.3153795617443 12.827891931154804
828.6252980499468 895.7242504682331 12.87129486896833
834.0921998264852 898.9646556438992 12.908535994905389
838.9025397435876 901.7926101119909 12.94085866144
844.4382907461381 904.8218464675957 12.981629728471678
849.1542878196009 907.5195930731679 13.012453857837624
854.8400665993641 910.6697703213174 13.050950799567223
859.5447330339455 913.3036425986782 13.081525307201371
864.3403948004798 915.9928879397188 13.112084858381627
869.4318169985654 918.8017888670371 13.14459812019019
874.4620389723641 921.4641120160992 13.178824432576494
879.3814607462218 924.1838068286669 13.209313925482155
884.3127316747464 926.8695910682466 13.241500895229667
889.4554698349309 930.0214830972958 13.282490621618015
894.9941044619345 933.3678130587002 13.318224501860074
897.1235833920244 935.2101491451906 13.326227624502334
959.0670263640009 966.8321417348311 13.717642285831095
963.7643617471302 968.9403208857804 13.741857102524339
968.1693929171811 970.5296267014197 13.76349182362539
973.0432447374859 972.9483020076858 13.792017247833863
977.6221779765266 975.2201162626901 13.819126337297849
982.4483141047382 977.6261979882219 13.848113529131815
987.1255692368212 979.9310726010315 13.876443904569207
992.1404272430182 982.3254470431257 13.90776531011965
996.6988017085939 984.5772083758136 13.932636990179326
1001.4678568171998 986.8859793355173 13.959767995219924
1005.8316675837677 988.9834069719404 13.984213785486824
1010.6890284846788 991.293668613823 14.010347708356433
1015.2798396439871 993.3725038541978 14.036283078753407
1019.9211050121662 995.4282863428809 14.063020816788006
1024.4218579522794 997.3099944847345 14.085055623345397
1027.413329051982 998.7708102846498 14.093240065196163
892.1532702362039 933.8805612037462 13.325516402058483
898.1758951819525 935.1195159523855 13.348776821761893
901.1619469422963 937.2981336596024 13.366823241777398
906.507925285902 940.7408612557057 13.406857615879002
912.0239850523592 944.1927914594069 13.449954481429895
917.7655530548166 947.8412726877667 13.492975091626803
922.6055182237025 951.2386807732158 13.531026428257055
939.0723114490492 960.0094126960473 13.636648646508567
941.9380208974102 960.5386039783864 13.64191992684453
946.7117244303575 962.3348153493438 13.66584657269926
950.740370362119 963.8334406929989 13.681612557398052
954.7590621241435 965.312474436365 13.69859051967472
958.345172825683 966.5142739910724 13.723406030261339
967.3795194038232 973.2535665967312 13.796119564222433
927.6728996203886 956.1648839625879 13.595368977336909
932.6508894957395 960.58504464727 13.643910332700807
937.5898847295923 963.2437576095306 13.679841619619921
939.8695437872146 962.84309622259 13.674211099393043
809.9694233122767 885.8114082369698 12.704098629393238
813.283710823329 887.2223609819524 12.73099652988982
817.2930601532005 889.0321986150342 12.761304596729822
1026.0254111372792 997.9647284535466 14.058528565086569
1028.8031433449307 999.630500517324 14.066396381148145
810.2571432430044 886.6661965628257 12.709328849513291
814.6873429407029 889.0006605172305 12.74744730699696
819.9463717770236 891.8995618670494 12.788447046925725
825.9054500488558 895.5136935000689 12.828590792284183
830.5730896954283 898.2060459138028 12.86087655432611
835.581473839837 901.1299048521903 12.893334389660499
841.0267992706738 904.0780814158851 12.932095004312556
845.9397957493843 906.8253070509338 12.964763993447018
851.0606542290012 909.7230036369355 12.997338392118108
856.074459493763 912.4321417120931 13.031883898369726
860.5179636627219 914.8878527911019 13.059698210467841
866.2459811265345 918.019482114873 13.09526112944607
871.3783367057872 920.7383293533185 13.130702276866725
875.3988927572789 923.0736143953424 13.152693400984978
881.0004917533572 925.9827562854738 13.192890849627593
886.8234092004604 929.8702168051208 13.235667181414241
892.1014391770728 932.7280683632263 13.27308929717631
895.3941521594351 935.0729769191632 13.294282288170628
952.9325467690242 964.9873083356122 13.655359073585068
955.9152840380665 966.0237725273853 13.67094227558906
960.1206382800796 967.9492610061061 13.693215576634435
965.0270406529802 969.720554711352 13.715888135721903
968.9312478019706 971.7257507303991 13.737167066124776
973.6159460425117 974.0541438069658 13.764679320582363
978.8982636517203 976.6630306079296 13.796134672658555
983.744161128815 979.1682344915522 13.821913536112454
988.6290169541132 981.5142494110447 13.854904794535479
993.6667591243238 983.9727783059064 13.884985935115035
997.8527874639401 986.0027685232432 13.909197345729424
1002.8158162624318 988.3533439903557 13.93926820961479
1007.6013050565977 990.6834592376154 13.965400854268756
1012.0768569165493 992.8015646067454 13.990980798099692
1016.2218522908554 994.8260678671796 14.010459447933334
1020.8120676578704 996.9185224140264 14.035571752124541
1026.124394134306 999.1539318203303 14.06629254125816
1028.9554231955092 1000.4096914894324 14.0773264976074
889.1931144628317 933.5155794972866 13.283307948605893
898.650136133851 936.8212665792253 13.32546080722256
903.3522512064956 939.8406278133504 13.361069391758015
908.3722306874666 943.165173414104 13.396998048767598
914.4449822199034 946.9122012801239 13.443005989719591
919.6073252966454 950.5959485149262 13.483691995762392
935.4470957115227 958.9884437078284 13.585045055329891
938.89640042666 959.6863004494785 13.594717253451273
943.2197696461429 961.4282246391274 13.614722966730351
947.257963220051 962.912229204506 13.631864783627282
951.0441797631255 964.2737077915571 13.64949250393422
964.2457612808047 972.4178740435334 13.747668856180857
924.1754689684011 954.7505638578209 13.539551997176064
928.5165085364512 958.6055377161427 13.580432566404149
933.5278872622524 961.2923850418439 13.614560860663689
935.2052262981239 961.2500491250412 13.60913122892058
801.2853277100077 882.6358620516252 12.620827030797022
805.7933656309957 884.3295293076498 12.660435223338228
810.1463243179362 886.4249052135356 12.694689909731187
1028.1235172363035 1000.1090295822265 14.040670478995
1030.8758925415157 1001.8962996670173 14.057340559961363
806.7198502355849 885.7121496946124 12.66985054678649
811.3269118502916 888.3497450221627 12.704468677001746
816.4387079511803 891.475750132664 12.73713465511807
822.1958507976303 894.7194870250149 12.778086119489881
826.9167506422843 897.3608246462157 12.810514202500483
832.2727605636343 900.4586141072001 12.84384752638559
837.3055072671457 903.1522666562289 12.879831835227437
843.2244527897301 906.433620305342 12.919121876000192
847.6014581278234 908.8374429692655 12.947858545597954
852.6787943478965 911.641614950278 12.978499269049161
857.7182022759183 914.3080024629571 13.012517805361663
862.6632166322665 917.0129878730304 13.044309851862808
867.6893435728421 919.7242378631925 13.077317144165956
872.429830603395 922.2947052614522 13.10611735540972
877.8362476895023 925.0858265987874 13.142653103425518
883.2355390384095 928.9468838812825 13.184283968517777
888.6309336313668 931.8030432400758 13.222494578416358
893.2956087527236 934.8827256762769 13.256205965217209
948.5468262591714 963.7749363451285 13.599763205921214
952.4301894006896 965.1444647097281 13.619644481902911
957.7646120435163 967.886672221074 13.650685529456142
961.0990951244997 968.4341772057857 13.658876224065763
965.4956637081938 970.6898106380659 13.686267942042555
970.8801967343688 973.4079389246001 13.720536512142685
975.288914015776 975.7009993770206 13.743619835129099
980.11962322201 978.0896241331446 13.772580741352478
984.5631716280317 980.3120374395028 13.798628056534547
989.9142109164986 982.9531004953529 13.83268153203275
994.58726013552 985.2774260731327 13.860283395075509
999.6755319818111 987.7263344428587 13.890565007524403
1004.4749941129471 990.078400603613 13.91737376052217
1008.3528859955638 991.9796274012917 13.938389879936118
1014.111711287696 994.677338182458 13.972899118428343
1018.1970076558584 996.5724697016083 13.995740245473588
1022.5076603168638 998.610511536185 14.01751339713145
1027.2077036649923 1000.6449354420081 14.04498576570005
1030.16146784711 1002.2014668040385 14.053232386283124
885.67867797741 932.9536783349731 13.233068921445849
896.5763996346558 936.7724395448297 13.285564396420888
899.9667129374271 939.1266954544831 13.308525982339825
905.1595233598396 942.442878007799 13.346736765282552
910.6509889164071 945.7686623557449 13.38748366710991
916.949166669129 950.0844303691829 13.439320427903514
919.5349676422088 953.4192391671185 13.463101221654195
931.6185698949322 957.9444735275398 13.533136828830028
935.3261006417257 958.6398199812098 13.542386258779082
939.7914593342032 960.4953651072223 13.565958473960864
943.5590836414165 961.9910455795665 13.578527952758455
946.944785536494 963.1765681451803 13.596625658309021
960.9369942001888 972.2234999625605 13.700477004707755
922.6803309453783 954.658967760851 13.512749067889311
924.5494954469576 956.7873942304594 13.518857863974276
929.2536227019768 959.2340721692385 13.548792361919492
932.366361716224 960.1797783084315 13.568722222753866
792.8382040272757 878.9869093782611 12.538077118605049
797.606192711932 881.4978368905785 12.582690004301217
801.986738390093 883.2886846854815 12.61798961656133
1030.3678172186662 1003.018478903022 14.034173141868811
1032.337354717835 1003.7332494763817 14.03605501886177
799.6892827370542 883.1050078616299 12.597287199792005
803.4923625259437 885.2269501155221 12.625437195628724
808.7795678578482 888.2455153475025 12.66258910193988
813.3177691380179 890.8858927416421 12.692927113941636
817.2814946961938 893.0396732056055 12.721663617292968
824.5802170543222 897.0324776312729 12.772391821760973
829.2751473835752 899.790114121289 12.799923094186475
834.1925101048374 902.544743158814 12.831385567057424
838.6391574193292 905.0126087561324 12.859079724243784
843.8498503240991 907.761521627706 12.893984379594382
849.3367949799275 910.7272090734289 12.929340975988135
854.3057350577634 913.4462332882797 12.960547196693769
859.5696519224953 916.1803954788217 12.996520234523832
863.8044033128084 918.478189500254 13.019757268468235
869.2514471701995 921.2947139828927 13.055991807597303
874.3165206430917 923.9344477758259 13.08942095832064
879.5915763393272 927.8320451529239 13.132872826192191
885.2887539162548 930.9933734474441 13.171886267985931
891.0770125728925 934.6785166682433 13.217272342455509
893.4553460766158 936.5869334001595 13.230159306886495
941.1257107564865 961.7809421061498 13.519653175620993
944.842084641172 962.8516343940099 13.549993453847867
949.6057258656016 964.4788076856872 13.57386818483995
953.6933778785026 966.4884565069782 13.595567494336724
957.3165947513446 967.6102290870832 13.608300000152425
962.2487400461048 969.6772805264701 13.63433124626884
966.8552425545305 972.1138208738543 13.659266994748094
971.8269986333494 974.6174714883177 13.693158661393516
976.8538251717634 977.2182711994805 13.72298376773311
981.4942340542565 979.5973096725804 13.74946679946591
987.0377705256976 982.298442906256 13.784816952325261
991.8081944412338 984.694168979108 13.813813721229542
996.148312615349 986.899754678539 13.83849255885944
1000.3944356680569 989.0211365817928 13.86226375658871
1006.3277789413073 991.690489165236 13.904128942165627
1011.5005425301032 994.3627288774907 13.927847177106443
1014.751478582469 995.8579186241851 13.948369048907782
1019.9446401965853 998.3332883813222 13.9762348921699
1024.1101093294405 1000.2794328730395 13.99822046339615
1027.917608764307 1002.0168207191475 14.01892486979531
883.0726373605788 933.1624306283157 13.19662731157933
896.9157654097025 938.5125341458443 13.262235438927412
901.8587381186845 941.8133948932484 13.30129064698762
907.449143246308 944.9025574710893 13.338041486615282
914.1945105576667 949.7501247775962 13.393250980620499
918.9505381431371 954.0104547711878 13.44128769580007
925.1720007746528 957.5017522271237 13.48084635543385
927.6123127498983 956.6531437953953 13.476327350807692
931.7770043220829 957.5932956659769 13.489640657113519
936.4675634784704 960.0696691631039 13.515232369402437
940.5938103127331 961.4436894410011 13.534140868958382
943.4647859454062 962.3053587593681 13.551888301867073
958.6045845108117 972.709447353758 13.671121494053725
958.1261840393324 971.7698927294173 13.64756047422691
884.7745399716514 937.0722650939279 13.231612369089415
918.2357813347604 954.9171857002498 13.456245497474587
921.293686520391 956.378900389365 13.477735587454736
925.6998271754694 957.7026831177006 13.49958469724737
961.0488537949268 976.7326784375448 13.709736144158414
784.7960586193531 875.8439623786649 12.456201453304182
789.5579992757315 878.4012667702381 12.502519360660829
793.8082850054876 881.0973236718427 12.53238463576922
1027.0645290650812 1002.6614779233198 13.984435836130771
1030.3913597684991 1004.0330746292332 14.004172964052572
1033.5039192844765 1005.2938787733997 14.014098924320686
796.5648859781504 882.4500613853127 12.555636207495354
800.5805574116262 884.8751386770075 12.58097130786504
805.4221229109588 887.7055832340359 12.612840778689469
810.3067016510078 890.4797499669595 12.644876755016455
813.3359071656353 892.4108853144892 12.659105751691584
823.1513218065287 897.1872362768568 12.740041219409152
825.8631254153083 899.0505255349527 12.747725412162746
830.7559736173938 901.6677755518912 12.77978955655065
835.1429668310651 904.0106962842058 12.808140296784746
840.8277008203878 907.0732375241448 12.844727985382203
845.683133875866 909.6939408056372 12.873402997696646
850.5200021646185 912.1909028267831 12.905117664643008
855.1120745112137 914.6089534617355 12.933243784609441
860.4732781251217 917.4242940295762 12.967466568409014
865.512878513973 920.0500640456237 13.00110409186249
869.8229694806801 922.2436386730581 13.025643530146594
876.6198348774712 927.4939269698434 13.088149202319695
881.6734491520706 930.0308252600137 13.12038848336446
887.0848849201772 933.5640232672674 13.161842772918988
890.9470416257682 936.1460189341491 13.190723058103911
939.6342594937732 961.3853931475097 13.498081179493512
941.3218431870977 962.0812073225569 13.499743723046995
945.7525064259609 963.5581329257878 13.519823211300366
949.9151509655314 965.548661705262 13.543232165255436
953.8181352548182 966.5853768469258 13.557792288305775
958.3320582865556 968.3255068934816 13.575114171773436
963.405135003271 970.9478681562739 13.609086543502212
968.7331305800739 973.6733200752682 13.641943835541742
973.3720858202314 976.065532171631 13.670444463576938
977.9254837801287 978.4422474214049 13.697720944159792
983.080546887721 981.11337132524 13.729213867740738
987.3476091744024 983.3164526720099 13.753232390793602
992.7826958819421 985.9640084158791 13.78934047417195
997.1585164420837 988.176235839893 13.815452746412378
1001.3086764669473 990.3304457013699 13.837247142344529
1007.132010026705 993.325997985912 13.866308232564528
1012.057126344483 995.5648990077832 13.9002100348578
1016.4081622329566 997.6209951767734 13.926633122975478
1021.3727091177718 999.9182733602725 13.955691484291865
1024.5423486502461 1001.4758612854312 13.970456001163148
880.1355213899188 932.84851769903 13.153138554054584
894.3821725644726 938.7160871303362 13.222850927517145
900.11766048313 942.5162869777823 13.269366735445402
903.8362980968203 943.9783503449971 13.287412164629037
910.8320206332505 948.7062643354604 13.342997346920818
915.5829470316822 952.7151256673455 13.387741741364396
921.9214798289053 956.1927251271603 13.43329703106011
924.0811524294872 955.3566409910846 13.422570843934244
927.8050040022615 956.4359427583131 13.432271889459091
933.4228584856323 959.946530059065 13.475060014199222
937.7684695815615 961.4333700312651 13.496733541062403
954.6969213921496 971.9720721234511 13.620998526981579
956.6577870041025 972.5909395064078 13.627079561009255
883.0539054089272 937.8617796322342 13.209334496176806
916.1335663258541 954.241643734111 13.42020244407997
917.3516521626659 954.9739621261274 13.424713323019306
959.3220268153278 977.5662950346215 13.686713269852502
959.3488242473774 977.4705497576182 13.677836770476063
781.612762277485 874.9896132332328 12.420121084233392
786.5883461027879 878.2309714664476 12.458956311115225
791.1662931068167 880.9037087539378 12.489717015799487
966.2672327491963 972.597101363329 13.570082412564378
1023.328216623005 1001.8585166173459 13.934717582410439
1026.9477796598574 1003.5864588314662 13.954718647629157
1031.5359177483826 1005.5000506089419 13.978039471272009
1031.8116958803798 1005.3110342561583 13.958918168384201
793.9343290010545 882.298466229485 12.51181712912786
797.4745640205133 884.4245973361583 12.533646711687865
801.9587740265864 886.8897162628161 12.564863909247302
807.7490081213867 890.0729022151032 12.60330182417641
812.3046487838131 892.6396888635742 12.631542190772105
817.3380670159937 895.30382543545 12.666341828879121
822.4753197137117 898.1101745174316 12.697626714310871
827.7114469125067 900.8419218057994 12.733226866634409
832.1688266912994 903.2338371632762 12.759948086791262
837.0676039953375 905.7971025655849 12.79054881234367
842.3686742769771 908.5228017259694 12.825680191580382
847.0627004347184 911.0419832452 12.852721922580098
851.6434373131787 913.4435507150225 12.8781321330536
857.4181398579169 916.2333243599137 12.921686758217787
862.6089680035215 918.8120823149454 12.958803080919003
866.0034495773625 920.4442407950792 12.984539404109283
873.4400006938044 926.7093814197547 13.041314713858121
878.4730142660978 929.373285748535 13.072538848918018
884.7070674046286 933.3756655556829 13.119583934040964
888.051215767216 935.6036556506197 13.147809753270622
936.2352038695275 961.0148241872116 13.44709573334529
937.8857389419849 961.2136937661229 13.448865327730907
942.1320299572166 962.724511536761 13.468188919719092
946.7179335098884 964.8766126071066 13.498288679819515
950.1974175209913 966.9171868342918 13.522524967034347
957.593073027664 968.0888716648792 13.55067118098272
961.266359398703 970.2302298612242 13.56840292704958
964.8382940225271 972.2588352426989 13.584069604199549
969.5741282297862 974.783742898465 13.612423303179009
974.0900172420526 977.165523481785 13.639151147895085
979.0466239954402 979.6750801558846 13.672032794190256
984.5044318773032 982.4656794079957 13.707872545570558
989.1702956356029 984.917814525461 13.734670334700452
994.1712474982089 987.4566954638107 13.766305230765994
998.7577898224348 989.8016504364459 13.792840145086156
1003.8549430855945 992.455850132896 13.819998883716059
1008.4680029668674 994.6329765822018 13.851131419805771
1013.1277020738144 996.892115476254 13.879318105781575
1018.075368801827 999.3216968514363 13.907075795508495
1021.4884548654925 1000.8405849727784 13.92919603857608
876.6725820618555 932.0435080632182 13.103747537719858
891.4877356399198 938.7004310597401 13.180966431255912
896.80820865959 942.1647453414037 13.22521797359011
900.7979823489309 943.500455485735 13.24192044759768
905.7142148465375 945.9846510555032 13.269978973015787
911.7978797706619 951.0220120183102 13.33020005449114
917.7778717532734 954.4993936214556 13.37230010634685
920.4748090898445 954.0074866576091 13.364979857744139
925.0863965963238 956.0349977236084 13.389069286238161
930.8804932291428 959.9057360434623 13.437664654334483
934.8471173155895 961.4173395500818 13.452531962986834
951.2718598288939 970.9676555758575 13.5712593337576
954.1649252476186 972.840653842461 13.59059971817468
880.5434191367495 938.3189656480256 13.17718300395822
957.2782366953846 978.716082421069 13.662067258440603
957.6714023594491 978.8236459614975 13.654777011568678
778.5953824430478 874.7025513837835 12.379282239906939
783.3668434774461 877.65806656252 12.413448374751246
788.8547196655104 880.6349873380215 12.452203267500657
791.7713704295843 882.720612582272 12.461800935177815
832.7218864870184 903.8915372208307 12.711617690181397
837.5653763194788 906.2221628918963 12.750400733168172
841.0083421030021 907.7405222268097 12.776611132645733
968.874583864489 974.1974032682438 13.580312231248923
971.3001679533538 975.6296149955145 13.588919713318955
974.4491203047834 977.3343347261507 13.597607863898219
977.0979256434705 979.0257481756761 13.609022875929131
1008.5825752988321 995.8854647925871 13.806984226135526
1013.8526684070982 998.3657781771471 13.844551852283086
1019.0397957023227 1000.7266641724967 13.881411039674582
1024.2607400251063 1003.1823123738868 13.912458974354232
1028.5379184481174 1005.1365919155264 13.935475860055986
1030.4428759137438 1005.5770479803705 13.938274512380621
792.501405753253 882.2490689887001 12.48655037983676
794.5419450712242 883.7230999510293 12.493070725724335
799.4221070164539 886.555168654041 12.520940728351189
804.2376201849984 889.1268280370998 12.553551021455025
808.6356181252675 891.5731792640134 12.578815359476891
813.9291240847438 894.3277576424922 12.615038365916217
818.687543953265 896.9012753970479 12.64204102366625
823.899144464583 899.5942767127012 12.675676679565372
828.255531626193 901.8938731971941 12.701498227238261
832.9630540559891 904.348493389118 12.7312094094214
839.4338945484074 907.5779755401603 12.777878790732958
844.1933725718856 909.9608859901579 12.812645587021489
850.3982283194265 913.1964732654257 12.851422526874535
870.2293168084012 926.2908682887232 12.996367567309868
875.2844799879782 928.7598140174134 13.02296824012821
880.7710889712292 932.1954281766045 13.06482681108904
884.8802917076265 935.1770986667723 13.104250833039998
898.4533412717279 943.0246185416186 13.177116800090149
918.0692974789041 953.1910514743483 13.300413508611548
934.8974040858252 960.6928856611997 13.403394896407223
939.2036954895138 962.073294706386 13.422865693006798
943.3951403071599 964.675494961207 13.45218277597698
946.7801257644727 966.0314587455591 13.471396705087868
961.6376598754678 970.9215557886508 13.542863099965164
969.0348169859552 974.736564036125 13.589923944138814
971.5797318620879 976.2442764373194 13.602678803936058
976.1603434848782 978.7365906562081 13.626500636556543
980.6338631266855 981.1499151391856 13.648995851629753
985.2924150178111 983.5652915720449 13.677991574245924
990.6154802567573 986.2831907294755 13.713357884712538
995.3974313498345 988.8304273154127 13.739697187857224
1000.0159526875682 991.1965206699734 13.768168346409714
1005.2240943759975 993.8151811569813 13.8009900844993
1009.737275259579 996.0539046841858 13.829790312285224
1015.0914335560104 998.5315162771376 13.867670027798331
873.8211994030895 931.8115479666051 13.061689105829323
888.0351741772422 938.0245794080857 13.134328648965726
893.542988229932 941.7825902777045 13.18043593244891
897.6581436854366 943.1490532027583 13.197388094443271
902.1430829883011 944.7070177952057 13.218491064850204
908.4372852431356 949.5652964053204 13.274180708336024
913.8865940458516 952.9304499321617 13.31216510825179
916.9008045801843 952.7245487401623 13.309174565145732
922.5704848435895 955.9489696915097 13.349175057777256
928.037233689334 959.8109398873205 13.39461022424689
932.2029170083563 961.265213562873 13.410849279216468
933.1427420095883 960.9999719487964 13.400798372896865
947.7572396701946 970.3495521177705 13.519588675629006
951.2983816731105 972.5318152476376 13.54788811807666
878.1036337450516 938.822645070954 13.143123957871623
954.3484864022034 978.8322719735039 13.622317622011508
956.2575351561259 979.8079704626505 13.63519748400676
879.7363334018263 942.349513212652 13.18024629644151
956.8718668836666 982.9923306134093 13.660452503016941
957.6823753221296 983.2528816675072 13.665532098352365
775.1369105274005 873.9993398652862 12.331174067973134
780.3364021573535 877.0216568887727 12.368921357941426
785.4989011304808 879.9486250658001 12.402538665864574
790.2746442948553 882.5954004829553 12.432559524130264
795.2262795026131 885.2989815889036 12.462642376968402
799.5402488946302 887.1626210061589 12.480907568073873
803.8386310847737 889.6754067689277 12.509385545508659
809.6823867980634 892.9584135621801 12.549145981333217
814.5660063026191 895.4564065288223 12.577562614524004
