# .PCD v0.7 - Point Cloud Data file format
VERSION 0.7
FIELDS x y z
SIZE 4 4 4
TYPE F F F
COUNT 1 1 1
WIDTH 828
HEIGHT 1
VIEWPOINT 0 0 0 1 0 0 0
POINTS 828
DATA ascii
-88.15917026854696 -121.58814307839839 -1.276925476874072
-86.80380663634708 -121.30811719032194 -1.3154679039150536
-89.18772478877632 -121.66241058815558 -1.2819319930327244
-87.8487220367818 -121.07802728723604 -1.3164463335167031
-90.68656662183025 -121.70188048051955 -1.286680677651184
-89.566602709526 -121.09031096765969 -1.3212475539357271
-92.23708573170964 -121.49934265009193 -1.2931739607914463
-91.15922769843355 -121.08016238727386 -1.3236062040222731
-90.30599585865468 -120.54316557679456 -1.3215500107972593
-93.07136090636106 -121.3211770880246 -1.2984645310436307
-92.22874099488308 -121.2090003527349 -1.3237294739768077
-87.77217400810126 -119.79477047580934 -1.269174199966753
-88.00650082409798 -120.50374637605115 -1.2728476648997062
-86.56305063884194 -119.78884249149803 -1.3126741913220317
-88.92664324993572 -120.11911253117145 -1.276978125386624
-87.53659065688925 -119.45407027394552 -1.3126851571755653
-90.34790743560596 -119.92660105356734 -1.2813575945407023
-89.13177047878638 -119.39169248810515 -1.316285364481113
-92.01601202919288 -119.88429913132583 -1.2884446001533827
-90.96360182043358 -119.54084608690539 -1.3197366238889747
-90.05219559191248 -119.40543172211014 -1.3183990684094447
-92.77539764500054 -119.58607762335669 -1.2921700099190072
-92.91052590926101 -119.59088888398804 -1.2932254494317212
-91.88696260289265 -119.52963021845721 -1.3200449977588031
-87.67187962684164 -118.47938669316105 -1.2645385571687449
-86.04157047516199 -117.72604039619921 -1.309060403555512
-87.96999150507081 -118.11535069833913 -1.2655967615675017
-88.67229240000384 -118.46747208460752 -1.2714006488850877
-87.15113491197977 -117.74938667876575 -1.3087636675055103
-90.00312264645879 -118.28387754619224 -1.2762980972556848
-90.38652007942522 -117.39256282472488 -1.2848418348579274
-89.52483777929646 -117.31049447900003 -1.292482319232472
-89.57361697950428 -117.19640287904204 -1.2993859992495598
-89.57883284541258 -117.14101205389231 -1.3043597213739415
-88.98146306723274 -117.87986933003599 -1.3124786614729083
-91.61575748432588 -118.09783879830238 -1.282383261383976
-91.26604881680788 -117.34361979347204 -1.2881452440189936
-91.00141830027155 -117.2450020081411 -1.2953288123679318
-90.8826706085136 -117.15257648422306 -1.3030130910198117
-90.68072231910203 -117.42823704271295 -1.3111439642328768
-89.9270424759192 -117.6544554988343 -1.313958098829015
-92.6492323882604 -118.08851371534227 -1.2879492221830113
-92.65693843650403 -117.27031383503737 -1.2918878125317268
-92.68947964175058 -117.72127500914058 -1.3018098092780457
-92.5625906602275 -117.68148345344693 -1.3086277496377108
-91.69860518916018 -117.32176653179849 -1.312442247672861
-93.48137611541826 -117.45488785840315 -1.3040587964989299
-93.2900147418289 -117.40282806165895 -1.310276399632599
-87.39899467469772 -116.72241722349484 -1.2571695295284087
-85.88151730784601 -116.67494440886118 -1.3073698143763
-85.57371110653129 -115.90286949485147 -1.3060912442077721
-87.90078103679673 -116.30960328299125 -1.259934061299334
-88.59257021401318 -116.6611052753746 -1.2666103974277718
-86.88454830324609 -116.23327899124934 -1.3056643395467413
-85.86217783856182 -115.96267363876336 -1.3061412811295765
-89.77614047615862 -116.66807318578844 -1.2716472599992774
-90.23844055233278 -117.01439312261904 -1.283057986350894
-89.34334067157202 -117.20860189183892 -1.2920727012187605
-89.56256840919336 -116.82002722000317 -1.3004253558760381
-89.37036097318848 -116.68814452307694 -1.3033774187362404
-88.48955421442702 -116.13432504432816 -1.3073349255973534
-91.24992140149341 -116.62984201260399 -1.2773990235395238
-91.14596971675128 -116.90227787857116 -1.2849411898747523
-91.07126861281596 -117.13214911481961 -1.2942399632814636
-90.78507029673945 -116.9562906877189 -1.3021278636541647
-90.44236918954326 -116.45470616841838 -1.3069649834770551
-89.73142956224856 -116.12593093504812 -1.3100041708809584
-92.4032504297824 -116.83253164590762 -1.283681931007072
-92.63548995771369 -116.99464824822375 -1.291423365525339
-92.52324968130594 -117.02177279330877 -1.2976704730249513
-92.32794927319125 -116.73802941227399 -1.3062294281750146
-91.57174729257605 -116.40652243765881 -1.3104625858816625
-93.40054637145569 -116.97966568415781 -1.3035668911528493
-93.16580985920795 -116.50537270535388 -1.3085484058935597
-87.16138227039649 -115.27860002014111 -1.2508086781838943
-85.23327681956121 -114.50555915785361 -1.303927411441274
-87.77446909237872 -115.18526958695335 -1.2555057249478068
-88.49048917986231 -115.16914931979302 -1.2623353082714734
-86.65731369397817 -114.77768827149092 -1.3027871496920707
-85.77106314855493 -114.43110320939425 -1.3034645451142155
-89.46361456699996 -115.1503344690139 -1.2669600238567014
-88.12957980534922 -114.58848447186004 -1.3029898482504572
-90.96625130776236 -114.9426936590962 -1.272369150364221
-90.40810402343463 -114.51384188373311 -1.3072117604467126
-89.4822947770654 -114.48134789438129 -1.3056264795293313
-92.02198416169132 -114.90141920287037 -1.2773359419412602
-90.91917020418761 -114.48136316337558 -1.3076470548032035
-86.87194173732847 -113.38893242235405 -1.2425976749163803
-87.02942933104634 -114.21333361422529 -1.246413029572046
-84.86780361825836 -112.92018354682197 -1.3014864204563057
-87.0241346197547 -113.15220070525372 -1.242951047621679
-87.71611045492254 -113.52369186138107 -1.2504931883703279
-88.31831410926867 -113.50548180058952 -1.2569252196861114
-86.56715601141183 -112.93492096351846 -1.2988050998668115
-85.61393522551384 -112.75443126115508 -1.3004244104718048
-89.19269730562893 -113.41988094766634 -1.2618330415209027
-87.87164112285441 -112.89804629150312 -1.298617049227654
-90.63970004529915 -113.3681187143496 -1.2674619452685103
-90.24950810239123 -113.23034521921059 -1.303929750562155
-89.3420740459835 -112.86472513721424 -1.3015062601345435
-91.75142004173901 -113.15672246779695 -1.272154918784223
-90.75342129746996 -112.85845863416715 -1.3034329170319676
-86.73076571457109 -112.0958746774355 -1.2374023689048614
-84.5993829375294 -111.57290130050359 -1.2994904180801825
-84.35689759184382 -110.7232576999594 -1.2981802977770935
-87.04362062038265 -112.01115889596532 -1.239790083279051
-87.67586479693944 -111.99124232712288 -1.2462432420173664
-86.40916492743774 -111.36204516990477 -1.2954572099553263
-85.38195306684831 -111.14906024797212 -1.2975207322058846
-88.07979828796962 -111.29277406013257 -1.2495806592321408
-88.78172805620642 -111.78234509017935 -1.2562309377036671
-87.44306706599905 -111.21455245938135 -1.2942615456412812
-90.30031440621832 -111.69611957103312 -1.2623651580216637
-89.03927575273173 -111.17916968357214 -1.2968703195979345
-91.62471397462585 -111.52408733656769 -1.268231529063864
-90.49910653153215 -111.11750553378486 -1.2987697708243529
-89.95569625731468 -111.13167775012275 -1.2983913817551824
-86.50729045890547 -110.67432583376585 -1.2311993561942296
-84.02876921441045 -109.48682184683327 -1.296283058647783
-86.89997986525891 -110.4171585418236 -1.2340988805483692
-87.51869841245703 -110.17919295526588 -1.2405795627068412
-86.20028929696106 -109.79869453123797 -1.2920350866402652
-85.30992852615522 -109.46462348102276 -1.2937660822563435
-84.39674959553261 -109.18441683716736 -1.2952618512698575
-87.94414967784222 -110.1190301550688 -1.24599402342224
-88.49555496339063 -110.08937652765631 -1.2511285225674842
-87.02514686107799 -109.58226646398701 -1.290077332012753
-89.98251660112236 -110.1017422423927 -1.2575515905926358
-88.70378675960313 -109.54277864664074 -1.2922806068416854
-91.24375166816256 -109.90568162900287 -1.2629467640943526
-90.38216463013406 -109.48574642843728 -1.2942208638182333
-89.67497868508718 -109.32585042360496 -1.2934808536332405
-86.1061569935672 -108.11433206949464 -1.2199390708910371
-86.21873503232656 -108.91790723980061 -1.2234320111658088
-83.61193042595781 -107.71007722425371 -1.2935713568097817
-86.74204950777681 -108.53269069185254 -1.2279912242475288
-87.32209883734228 -108.62656254170177 -1.2359182653678582
-85.12169103305665 -107.73159165394844 -1.2896516171762205
-84.17856013721719 -107.75045654793132 -1.2926324599497523
-87.69606145735942 -108.36045859570915 -1.2407043996362082
-88.34369759691593 -108.43076703590687 -1.2469886637439676
-86.71626978836125 -107.89182162191128 -1.2853990959317734
-85.86768798159027 -107.82357930836272 -1.2872746696807316
-89.6879334741581 -108.28007874342367 -1.2524524417129843
-88.4798191826912 -107.87718250426687 -1.2877064104271505
-90.95199813352268 -108.28657666930603 -1.2584629597584307
-91.50085949935031 -108.12355110287899 -1.2622365653704941
-90.13622533443039 -107.81049767572262 -1.2892836918521944
-89.37948181127959 -107.74576955668756 -1.2888880518035863
-85.96323215131662 -107.21598345109604 -1.2161090773584275
-83.26501430730644 -106.18999587086174 -1.2912653461647332
-83.00290437181292 -105.54522236034205 -1.2902870710610286
-86.11189377610552 -106.65930272171462 -1.2158962070938966
-86.58965665215453 -107.21635499451651 -1.2235004806054228
-87.10069032340115 -106.9704926919443 -1.2308941739101604
-84.95254611919685 -106.18521802030418 -1.2856977134928944
-83.9704545286299 -106.02116219309336 -1.2890325669706362
-87.449330374904 -106.82603483732449 -1.2357418873939905
-88.08643285808463 -106.67545481526517 -1.2419436689591183
-86.39716645099656 -106.24007210806279 -1.2809835840225599
-85.57801114700578 -106.32908533121139 -1.2836719432871861
-89.4503497228886 -106.79039409793299 -1.2483717666580856
-88.15830451210054 -106.09438654181196 -1.2825816111868849
-90.69766377782499 -106.69426676478903 -1.2543114184523338
-91.26018299073372 -106.59638874964963 -1.258388317941436
-89.84345236469902 -106.22914280290881 -1.2846888258666516
-89.11467676059124 -106.15759060743893 -1.2842869248158648
-85.72907967686461 -105.73040069499953 -1.209702519241725
-82.73550745487636 -104.378661992692 -1.2884458435556319
-86.0224298907248 -105.5907227957207 -1.2124615233808604
-86.51936770388612 -105.45909982761269 -1.2198148863684548
-86.88527878291605 -105.49325806695293 -1.2263463007011857
-84.72467548374111 -104.54581493138552 -1.2815669208121794
-83.80937401607254 -104.4940359521645 -1.2855960811164766
-83.12590054584373 -104.56519804103077 -1.2883847835271816
-87.20061868939919 -105.41190863326294 -1.231002420760732
-87.77706787006703 -105.15739597204634 -1.2373534427854016
-86.11871071667201 -104.62328786472551 -1.2767288867450814
-85.28175069721603 -104.55454575255582 -1.2790884364057413
-89.06065959188258 -105.14570172836167 -1.2433873911313278
-87.8102857352601 -104.72202472918778 -1.2784252439755517
-90.33945791006049 -105.06383589329373 -1.2494000877557263
-90.93305331810299 -104.85457241419186 -1.253481369637099
-89.69008662230894 -104.51641910533436 -1.2794862561941711
-88.78008400226366 -104.85043951242783 -1.2802972715180394
-85.42626777829818 -103.90952373434588 -1.20178371124105
-82.4012616021176 -102.75724920240835 -1.2858622299745712
-85.77971664895391 -103.76402376328521 -1.205555980189946
-86.36062963540837 -103.85417734667779 -1.2150989469172595
-86.65829073202772 -104.00911992415676 -1.22118240607656
-84.43844626465784 -102.92341957856166 -1.2779838702156356
-83.76435377983839 -102.83965451066136 -1.2812204161285194
-82.79408894748492 -102.67044346603156 -1.284778615578721
-86.88984567468222 -103.65173508014163 -1.224695718802161
-87.4186913950352 -103.4451411020272 -1.2319759366717928
-85.82101844307695 -102.90466893763748 -1.272000835551712
-84.91435658389379 -102.98044405858765 -1.2755846580679622
-88.56011744942863 -103.39677086429607 -1.2378289466826344
-87.42753518539195 -103.04535969753053 -1.2733140403128742
-89.83191537256307 -103.38898040326647 -1.2437626601040532
-90.61595248005726 -103.26364706526545 -1.249075162550229
-89.33725217433042 -102.92170186289461 -1.2746478252482263
-88.46842068073524 -103.2756873507674 -1.275546954130559
-91.29977953368108 -103.17554343243273 -1.2540838773152863
-91.5009053113293 -102.13429027923783 -1.2720905935138962
-89.98442850265823 -102.60409155359159 -1.2726151486878097
-92.21568829337568 -102.713563632174 -1.2590547364951243
-92.53363261788466 -102.68997383111444 -1.2651912996290717
-92.185728020036 -102.6273521002005 -1.2714382086894203
-85.12382064996014 -101.9992470869735 -1.1936578068130583
-85.26580040380253 -102.89373137486939 -1.1975030964255948
-82.00398642463813 -101.08392296991032 -1.2831380031084667
-85.22705145101179 -101.76819105732842 -1.1940338432025914
-85.62080960928114 -102.3011741122804 -1.2006584407005083
-86.17207994255769 -102.22315106111911 -1.2101663659592057
-86.17456768357856 -101.3431936090669 -1.212973035364361
-84.0820305276246 -100.95365601149776 -1.2729511693377187
-83.63551764210956 -101.28508374279676 -1.2771620557487233
-82.59862751291713 -100.995102454473 -1.2811287415273964
-86.37158349465032 -101.87084815221972 -1.2143644314104083
-86.6329236341088 -102.05048737210682 -1.2198746119496209
-87.18991224174806 -101.88936515963701 -1.2282278993561193
-85.52466308433623 -101.2353461824206 -1.2669529841885272
-84.66957402078944 -101.28995562980195 -1.2711537196695408
-88.36976752599247 -101.86827737463827 -1.2341479655300254
-87.05691261959073 -101.3301084221588 -1.2680277673825597
-89.50823895593757 -101.65723819980428 -1.2391936813607762
-90.26633058715409 -101.77521956327179 -1.2445930243421262
-88.84663845385126 -101.31610433139643 -1.2697544298341321
-87.88728430290928 -100.96631534041148 -1.268269561224021
-91.20048315369837 -101.29415658608707 -1.250596646107943
-91.70744904156211 -100.80340501635223 -1.2540923434917146
-91.19416432758727 -101.02757250577015 -1.2683104325493797
-90.13793869215867 -100.69667701122212 -1.2671972470478972
-92.20580476021813 -101.59468404180026 -1.2613521336534064
-91.91339647226248 -101.42617963593075 -1.2670924831231258
-84.98628806815178 -100.77805713101029 -1.189009132123513
-81.72855871813113 -99.91231079042441 -1.2812059331670584
-81.50679372116792 -99.22961455418105 -1.2800665394685546
-85.11383483601558 -100.68506002441353 -1.1903198177473164
-85.50562712753924 -100.65552106369948 -1.1967302453877129
-85.71159878625187 -100.55187913106278 -1.2055008658309534
-85.81897949722922 -100.4256741819377 -1.2118319739790122
-83.79718919343178 -99.75336055768096 -1.267100005895308
-83.19973166294267 -99.43105045271243 -1.2722483314586497
-82.33999847062776 -99.58076179066306 -1.2782701185647334
-81.6584131118963 -98.87232938766778 -1.279114244964646
-85.97948144463216 -99.86786015111213 -1.208097963116445
-86.08983759262765 -100.37382947173228 -1.2156741935536421
-86.72892957999949 -100.41110855921116 -1.2233600849400281
-85.0827816908702 -99.703962138272 -1.2619185227964376
-84.21283063141685 -99.42747607891296 -1.2649636812337561
-88.13544931764889 -100.29044776081463 -1.2301923781781607
-87.48850598339583 -99.3676117313104 -1.263207462325616
-86.77368487463549 -99.81030395286983 -1.263436890060373
-89.19255272767653 -100.17749493886201 -1.235086846163056
-89.81293269348281 -100.0046349005295 -1.2392957784979666
-88.4950995003996 -99.80644902983887 -1.2650390491363934
-90.83383380538413 -99.86039896131267 -1.2463279445410058
-91.36873987624288 -99.5733120253631 -1.2507786994012298
-90.80714737406197 -99.61957120371488 -1.2633727852379149
-89.88376140987229 -99.69962142127089 -1.2640199873231968
-91.69577649516864 -99.80566016309264 -1.2563610685566289
-91.51621200486251 -99.83959854376056 -1.2615229361023732
-84.67476795395287 -99.23000235010164 -1.1822114448653902
-81.28588143228455 -97.8169826175593 -1.2775266187907635
-84.91389887035315 -99.06572517634689 -1.1847003149588315
-85.2728941460174 -99.03112329290623 -1.1919062095173305
-85.48131095425227 -98.88613554263345 -1.2006334647851553
-85.47291215460072 -98.60210522452378 -1.2054187051650016
-83.4034640085721 -97.84963356683504 -1.2621232742271817
-82.963807039699 -97.89297001337535 -1.2675874408406442
-82.05697439871027 -97.75386352866582 -1.274009516058735
-81.38596206006503 -97.32214220080965 -1.2759772303820933
-85.77897425405854 -98.7905444431135 -1.2051600429095712
-85.8731259183228 -98.78490304639281 -1.2109803432039663
-86.34614671674491 -98.48612177338296 -1.2182173233662017
-84.82464098254472 -98.07439259188605 -1.2569648978446393
-83.9537507973616 -97.95530876203591 -1.2605476017963095
-87.57139057803654 -98.50918974111057 -1.2242267920498264
-87.16966614050999 -98.05396590139273 -1.259007566834289
-86.3709665742417 -98.04226565715155 -1.258046613736669
-88.71359259733327 -98.48911026110615 -1.2299105184951415
-89.44348949915285 -98.45511348307511 -1.235119111125989
-88.2407378324184 -97.97855856729667 -1.259012089757999
-90.28594400028848 -98.2557481978545 -1.2410044718429416
-90.99035099668406 -98.158007014319 -1.2473708492227953
-90.46914368541279 -97.93560333890757 -1.256988632174335
-89.46399365130657 -98.07161950976068 -1.2587083985208205
-91.2199166412597 -98.20360979153247 -1.2523388673779243
-91.05239976594805 -98.01837578398714 -1.2546474267585268
-84.41770538613034 -97.43191726087568 -1.1752195483290797
-80.81905200355506 -96.23856089924094 -1.2747574892745221
-84.75973001979195 -97.54827219888155 -1.1805061430649069
-85.04450328850749 -97.43949272597105 -1.1880000279855387
-85.25022530112001 -97.37301889248303 -1.1945558883584346
-83.06505653529108 -96.24574514455715 -1.257440103126703
-82.66951844530621 -96.222307385492 -1.2627156982711323
-81.88685967059685 -96.09763091317201 -1.2690995143442252
-81.2469547486693 -96.09782845128005 -1.2730639262282575
-85.61877379294586 -96.94895676761995 -1.2050261609672317
-86.19389113073294 -96.99985837587471 -1.2151429802369262
-84.49414142334322 -96.58136619827324 -1.252514198973488
-83.54361390451122 -96.25699394949486 -1.2556982434116812
-87.30095193176204 -96.86555755653576 -1.2201764533039186
-86.76623110570651 -96.4221910900117 -1.25376633869782
-85.97899153736313 -96.39699193489247 -1.2528272959735092
-88.3425800952289 -97.01021205070653 -1.225653728373941
-88.99699613477657 -96.78902894099146 -1.2303311341727008
-87.94615235710688 -96.48732624841564 -1.2539793434589672
-89.91852829826908 -96.76542204201807 -1.2370214350429896
-90.49477463808454 -96.50874723914265 -1.2432159171966537
-90.10107095858315 -96.33859951087527 -1.2509004530350512
-88.96248593270931 -96.34258201978237 -1.252928249598299
-90.82924478333037 -96.99943862451575 -1.2496648357556785
-90.77421453041731 -97.12379303216463 -1.2516779009256231
-84.03828205785958 -95.29609294859071 -1.1663832790388002
-84.20466677832364 -96.25051203046061 -1.1702902157615112
-80.4357244500755 -94.4137319734127 -1.2714026690144982
-84.43672273929252 -95.81982001320726 -1.173252911140386
-84.75342701571489 -95.75801020077955 -1.1826149712848748
-84.8442727760437 -95.55286596718693 -1.192496241044276
-84.8291400165541 -95.20475051642565 -1.1963325015605575
-82.77283190424517 -94.68329137670861 -1.2531625674222349
-82.39353008142342 -94.6586771733276 -1.258025455190369
-81.65095680715068 -94.44344123574146 -1.2643121760892908
-80.95520688058582 -94.50327663464024 -1.2695220973562709
-85.2441525397724 -96.10092704657873 -1.1977603611495824
-85.11406586958992 -95.4595379522249 -1.200935214429084
-85.42307315126578 -95.36868006778714 -1.2073645463310716
-84.00351971253882 -94.72639773628913 -1.246754465786377
-83.27816302986609 -94.84439090695497 -1.2517756356181855
-86.92106932778324 -95.3592936901442 -1.2157863608817538
-86.24335274451653 -94.76373913934728 -1.2482905494169305
-85.4331621480543 -94.85751648758357 -1.247699456900492
-87.7553214162925 -95.11762870764323 -1.2196948301699446
-88.51424302013355 -95.10612609703735 -1.2252072090320179
-87.57627938959908 -94.80548091715889 -1.2485219931099252
-89.38036128055768 -95.02771333355118 -1.231720891374519
-90.04986891765394 -94.94008616707124 -1.2394688729252819
-89.46975119119911 -94.79916826386066 -1.246115237508484
-88.62867616827896 -95.03170381285949 -1.2485501214051429
-83.83321748113423 -94.17089248776985 -1.1620541764675179
-80.1337706866685 -93.30202570835453 -1.2692593134475367
-79.8574636490742 -92.29900177582662 -1.2672100459078934
-84.01345135319082 -94.35795781351347 -1.1641514487242584
-84.21860791915039 -94.22294537269417 -1.1687104250059481
-84.4758966201811 -94.15718676137409 -1.1781697489620264
-84.65451191187356 -93.95189918806 -1.1857994705356962
-82.2227196326195 -93.0513884703347 -1.2534438281198137
-81.41093266349016 -92.84876011937067 -1.259511736520461
-80.63003550588489 -92.8025848473253 -1.265611400953661
-80.02563814071829 -92.20577278076487 -1.2668835871612405
-84.87095991253656 -94.27348603488703 -1.191627090000146
-84.94825899185194 -93.7375730011262 -1.1959810888147777
-85.27547787404498 -93.69894779163246 -1.2038766974549784
-84.00231398388027 -93.15360680725196 -1.2417631603894181
-83.00592710833615 -93.0779398054927 -1.2473257885339035
-82.5044011497805 -92.83584604573466 -1.2501870414436684
-86.62251660028696 -93.61254544460284 -1.2116452173222478
-87.28415009902682 -93.2577227961006 -1.2143803440537382
-85.76220739688749 -92.92899484336894 -1.2423445891774103
-85.0149935729157 -93.01214421531826 -1.2415379076443105
-87.505576674593 -94.21490735686541 -1.217009015438042
-88.0928821179903 -93.41877872053608 -1.2205408327937461
-87.20528499607427 -93.09648222636939 -1.242908854890505
-88.94236457006737 -93.55972913099217 -1.227216007572838
-89.47182331576728 -93.28464420152592 -1.233184980103131
-88.85917106258536 -93.27605946039128 -1.2415567256315065
-88.22201788600383 -93.22697360829265 -1.2425903819637167
-83.58814947882597 -92.65988781045426 -1.156478201434332
-79.63228264840299 -91.19732365493871 -1.264922325896012
-83.72281040736719 -92.46667176086856 -1.1576911605143199
-83.9780875923128 -92.57429910076928 -1.1642156722538612
-84.18457928836229 -92.46522068860182 -1.173604163818494
-84.35419625379954 -92.40685944481935 -1.1810591212358124
-81.79133970324489 -91.2870037057194 -1.2492184933868764
-81.13409527620514 -91.1978118809504 -1.2547519427736629
-80.32299117552346 -91.3026793877212 -1.262191984583528
-79.81982748173033 -90.84880038065805 -1.2637354984302527
-84.4982489268205 -92.37431095678636 -1.1863894154447698
-84.55208012264025 -92.20107132810834 -1.190202945144712
-85.02027304262201 -92.07517111824261 -1.200558960416201
-83.51351744827403 -91.51414041847542 -1.2367897972557869
-82.63333121960139 -91.57872942524916 -1.2433022016010906
-82.32253086370174 -91.93118648713056 -1.247684964604607
-86.16593260102017 -91.91102312726433 -1.2065828033698474
-86.83351394164808 -91.80588163774534 -1.209774861426461
-85.50287664415484 -91.43448204310852 -1.2376197502148039
-84.61579528349054 -91.52801280439968 -1.2367653021183445
-87.66436646306857 -91.8408022406328 -1.215832865372243
-87.66424868021673 -91.01381724964801 -1.2353718928049484
-86.95745346822663 -91.56845809814182 -1.2377643022201155
-88.53715924458427 -91.98232627700777 -1.2227718268964431
-88.95105355938664 -91.6444301045299 -1.2277310502102268
-88.57176112825003 -91.5129792684548 -1.2351135826349537
-83.2537494045366 -90.88284209669767 -1.149595368306174
-79.24412091591898 -89.44642883990244 -1.2613067123584414
-83.5070082070274 -91.03357592385916 -1.1529915152101735
-83.70966448155465 -90.9139683146381 -1.1596628815881818
-83.87968730418996 -90.82093905484105 -1.1684205323668504
-84.00352868736104 -90.63937217976259 -1.1755988505129857
-81.49956948652292 -89.6127852182169 -1.244107333395777
-80.8309185779012 -89.58037838509597 -1.2502831551168325
-80.09616977741909 -89.6032227502625 -1.2571664506476552
-79.51627598425664 -89.27076397788431 -1.26011838406749
-84.07065977873862 -90.3918571303581 -1.1802994755004519
-84.21915534234137 -90.52455802042113 -1.1859704530128088
-84.63911630282166 -90.41314373848422 -1.196016176194421
-83.26106691721095 -89.9208451534931 -1.2315913512155152
-82.19131769182124 -89.60980864123282 -1.237593846943687
-81.73871584631809 -89.00023758197378 -1.2388658279869265
-85.67677032006897 -90.32237862052497 -1.2015649981794145
-86.31672532001572 -89.81165242612737 -1.20407892458632
-84.96533669718337 -89.63386879561207 -1.2316876509255221
-84.26617764155954 -89.95868172197054 -1.2318141640359432
-87.32973761187819 -90.08371985600276 -1.2117988672841677
-87.83132074544616 -89.28659079734835 -1.2151396523458864
-87.38187121155623 -89.81050516533107 -1.2313831191188105
-86.34194804905665 -89.89736897559429 -1.2325070071299573
-88.43287114414123 -89.96942927387903 -1.2222769226260344
-88.05447142708282 -89.83433745211852 -1.229646570654497
-83.03806000842754 -89.51829550826797 -1.1450471936169944
-78.98780273283458 -88.07060271410968 -1.2580652662966472
-83.23860295399345 -89.33654580431099 -1.14832808755891
-83.4085652039468 -89.28875078743197 -1.1554336313793079
-83.55378843868463 -89.20799857630406 -1.1633503745933684
-83.68817015531508 -89.03191043037528 -1.1721079954653664
-81.40011252999639 -87.35399854948705 -1.2336980034269625
-81.25887039377297 -88.06283627805932 -1.2386768237055141
-80.54983341570014 -87.79165542292371 -1.244380011161785
-79.81934357506583 -87.80699987440654 -1.2516890939892158
-79.28100363308887 -87.77143282788234 -1.255993949503403
-83.70374436774362 -88.72303094244323 -1.1753663475250231
-83.82339056644189 -88.88203075727607 -1.180677496805413
-84.23163817882633 -88.67937817100605 -1.1906889244534558
-82.72846140072028 -88.24054182029823 -1.2267903770705302
-81.90128251988044 -88.05401338832671 -1.2322435108066312
-85.2085937661071 -88.86719423091343 -1.1968591565010942
-85.99678101018469 -88.53692236847257 -1.2005250274534838
-84.65039786032271 -88.22455717191826 -1.227151260280987
-83.76978969642379 -88.24517062365454 -1.2262345651402176
-86.88857624622342 -88.48395033610603 -1.2070072934332319
-87.5347371883479 -88.21429291758075 -1.2122119808964984
-86.9925650925334 -88.39436636699375 -1.2266696639131183
-86.14520401621449 -88.20870933959344 -1.226791690969009
-88.01023137461824 -88.49307209192588 -1.218391627745727
-87.65626112543133 -88.23940423484778 -1.2240098837312625
-82.79803259915228 -88.25329291194684 -1.1407004464164925
-78.47057307796577 -86.03436357664364 -1.2530554847010555
-82.9098860707617 -87.7151850350522 -1.1425820325082308
-83.08319540015937 -87.67864761257381 -1.1508069500897313
-83.20681655012118 -87.44133072087703 -1.158999235533417
-83.31466133015874 -87.35472506032427 -1.1671218081854744
-81.2274346675611 -86.57498889049285 -1.231261317904103
-80.86356924395531 -86.40884618723112 -1.2340496980297457
-80.19918931519027 -86.21832212599556 -1.2400498560174111
-79.57008076877244 -86.27554499535884 -1.2468108840730172
-78.8987361921379 -86.00643225418445 -1.2516582739686972
-83.4510088789115 -87.61301106233773 -1.1721804263687667
-83.43060876023193 -87.27683277896277 -1.1753159587463067
-83.77191069992118 -87.06246084141556 -1.1853495528305167
-82.45951049839317 -86.59988277613851 -1.2215867525934259
-81.4883612016961 -86.42710332664542 -1.2275782004504685
-84.82103381920534 -87.14383365178891 -1.1920895325664789
-85.44114347569986 -86.95756930690857 -1.195162976298567
-84.22159210922915 -86.5055474782104 -1.2215196052545807
-83.59574707979971 -87.37863060845736 -1.2235140171821524
-86.47653415982852 -86.93458518557229 -1.2025199934970072
-87.09625773539429 -86.6674262953839 -1.207918738711149
-86.65632251584871 -86.7266345406445 -1.2207162504728957
-85.71165052439281 -86.49998338824811 -1.2212256735012565
-87.36772182303336 -86.5803251221194 -1.2124461950912024
-87.22565390212462 -86.70114599033717 -1.2182564754230603
-82.22965459524623 -85.91777002684617 -1.12813165667051
-82.37407848862843 -86.52704795154918 -1.1335601689783292
-78.1736611607592 -84.89717072339545 -1.2512922003604157
-77.77842371311976 -84.17604851292334 -1.2526073278429968
-82.45096535662448 -85.57534401853559 -1.130303240445686
-82.58684552336129 -86.06324932667818 -1.1370995409525961
-82.72258604978812 -85.91357858087929 -1.145531329354173
-82.8422564312972 -85.79340633464692 -1.1533538257917901
-82.97434855592553 -85.86448742768823 -1.1623712617668487
-83.00255837190143 -85.6663267872997 -1.1667700891796324
-80.85706179166506 -84.69219823381917 -1.2248441798314391
-80.45084583100513 -84.76815515544111 -1.2296198452275384
-79.8792254549983 -84.65949181942172 -1.2353320863296795
-79.20203284321902 -84.64894090281682 -1.242571293514156
-78.50321552087168 -84.25783888426723 -1.247554369382092
-78.06690034660015 -83.73438788716408 -1.2501826024894356
-83.0559310719902 -85.6020506381397 -1.1717823735676975
-83.37735445763123 -85.45198768249385 -1.1804798996805996
-82.90689881804862 -84.7566194398727 -1.2151216080831173
-81.90883018843937 -84.91387156154133 -1.2165553547446923
-81.18484720999925 -84.94640337391553 -1.2226490168919064
-84.30478352799315 -85.44931612958428 -1.1867349796578301
-85.02148949470214 -85.27227546162504 -1.1904677055218542
-83.88885988449188 -84.9414366560211 -1.2164861110917722
-86.03156249680094 -85.24643575458762 -1.1976560657540127
-86.68582387674535 -85.12694595348472 -1.2042602806013614
-86.22044721632992 -84.90220056044896 -1.2141048178647424
-85.32986042018115 -85.12609605305104 -1.2167676399963245
-86.94568535214461 -85.24966520647034 -1.2096699802532884
-86.8730117374034 -85.42003526194092 -1.213169094564914
-82.03517889115422 -84.41821683284748 -1.1151477782755639
-82.19083342156779 -84.9073606399912 -1.1216958365414609
-77.507873739856 -82.86515934336283 -1.2524229439001744
-77.04120570335996 -82.37385989347153 -1.2554125752426126
-82.29120374792589 -84.3789195440459 -1.125068027509862
-82.28883676409946 -84.52070234027657 -1.1321701914374784
-82.39436144812719 -84.34668477385739 -1.1401592395716875
-82.49541462188566 -84.20651515654251 -1.1484283922642156
-82.57519830520775 -84.11608204404479 -1.1571075404611988
-82.5925047438973 -83.84888867902681 -1.1623676788070105
-80.58634492949052 -83.33092175837017 -1.2202377018713482
-80.094174676121 -83.12753677934225 -1.224570489115359
-79.55806856542158 -83.02739164200926 -1.23013436425056
-78.90526888397952 -82.9605139978584 -1.2371898641302084
-78.21778135934855 -82.8155374249211 -1.243885846409934
-77.81873262126383 -82.65209837043759 -1.2485428260216285
-82.65620194775002 -83.86146526307309 -1.167036905002292
-82.95628148457003 -83.80629795266196 -1.1755581057330768
-83.65617099267754 -83.2843106048184 -1.1799484169238776
-82.51605211661708 -83.13626483466044 -1.2099527988063672
-81.5619815320765 -83.35792894970874 -1.2116222186179322
-80.85256080628201 -83.14406277079244 -1.216262765498275
-84.54197684787428 -83.57910646202231 -1.1854276597835618
-83.57860817225962 -83.25450627823301 -1.2109999906456033
-85.6326811154918 -83.71181155752652 -1.1933147499164007
-86.21291954472736 -83.55730036344613 -1.2008899692021044
-85.78792341013141 -83.30592556129366 -1.2080728018766231
-84.94093653903178 -83.42785395725551 -1.2111419201295917
-81.98287574191129 -82.974104690182 -1.103346454469854
-82.13210872426681 -83.06431994537479 -1.1109434155523814
-82.18847156401276 -83.41766254144147 -1.1172574864287537
-77.33243391545732 -81.3314136469832 -1.249591783237423
-76.99528506278781 -81.03882247964765 -1.2528911233494537
-76.31590225937938 -80.81421093231853 -1.2582059108027481
-82.06072034260163 -82.8368122159948 -1.1186531840953893
-82.01382580455991 -82.88221405621334 -1.126768175303762
-82.10089295178065 -82.7317746803948 -1.1355752283025187
-82.14827402197876 -82.57445688491113 -1.143999942216785
-82.18085499688459 -82.39605577226831 -1.1521290302126652
-82.2500893996141 -82.37635218674846 -1.158472753978407
-80.18277146502146 -81.44875726789671 -1.2140728839679689
-79.68550413137238 -81.45903124627 -1.2198385570087205
-79.12797761069397 -81.38703335260323 -1.2262023173579997
-78.56443734518683 -81.23454859727312 -1.2321018534981931
-77.97734333711969 -81.19347025733624 -1.238744685973931
-77.46683139408853 -80.94006087151593 -1.2449484171907568
-82.27074653145843 -82.2821245970224 -1.1626903396713986
-82.45665388518654 -82.26858000072566 -1.1700036469183401
-83.17687454486789 -81.81556619281331 -1.1753103728982555
-82.07720474340984 -81.55886694115605 -1.2046958036406372
-81.073498863361 -81.61072547187975 -1.205994063796988
-80.47267680424697 -81.54206797793604 -1.2111741019871884
-84.08018780005258 -81.91021480853007 -1.1806485533805564
-83.20954313918368 -81.76588185759172 -1.2060124860796324
-85.09649918125699 -81.91559296301473 -1.1878858339537934
-85.58271790357229 -81.87592611487378 -1.1942866383786401
-85.28255068883551 -81.68480102616388 -1.2019253411170816
-84.44911963636379 -81.763169934724 -1.205507948156426
-81.84028097157093 -81.40003496735322 -1.0899170456361325
-81.96852679915915 -81.5851362812005 -1.0980157124744034
-81.91233311610075 -81.3809573323809 -1.105488015681343
-76.7464730984532 -79.45031823322755 -1.2489862233530657
-76.32391638291953 -79.2357191317489 -1.25491844756826
-75.7491753649241 -79.13003288216731 -1.2609426280952218
-75.18675239541446 -78.4197274908442 -1.2633697309990641
-81.83300582166476 -81.19078199104563 -1.1090964967229027
-81.79170541749049 -81.26323354013813 -1.1140524433969234
-81.71551913635221 -81.17385945570572 -1.1221601710207567
-81.75189167851295 -81.09156967859612 -1.1304926566968099
-81.76234601486443 -80.87203178807128 -1.1394476855794073
-81.77756250018277 -80.74577924157691 -1.1470595012296982
-81.87717993954504 -80.91646174754105 -1.1550977712835888
-79.7941863201237 -79.8779631315826 -1.2088546461053937
-79.29684953317697 -79.7866811528812 -1.2145970391304197
-78.79639944263995 -79.76243952929408 -1.2208414217523604
-78.23325258305053 -79.76857437910485 -1.2279698028576873
-77.60613280279482 -79.4977544061358 -1.2342833831451365
-77.20882648737492 -79.57548818403134 -1.241455916688422
-76.87354008867186 -79.08227410842711 -1.2445575340298312
-81.86403985214767 -80.72321007087625 -1.1591299554638352
-82.0298053587893 -80.61514905089885 -1.1656047173013058
-82.73353183633492 -80.3307260755498 -1.1708388098890359
-81.58998951488744 -79.95621893107531 -1.199289213168322
-80.63456198388637 -80.18867490323696 -1.2016715907023507
-80.20647397523527 -80.24855290409796 -1.2061682624629813
-83.7237955062093 -80.45649695534523 -1.1767647053883614
-82.92160015427777 -79.9752174172224 -1.1999830705679626
-84.64885574764496 -80.5838522728543 -1.1834495143945176
-85.03642825990323 -80.3330526685791 -1.1900491567359226
-84.6262157165539 -80.17259889064479 -1.1973095576769968
-84.08738631948626 -80.22382768470978 -1.2001485438835948
-81.69548064334342 -79.91557261125149 -1.0771670942865974
-81.83035345201517 -80.05786099320403 -1.0860622118208305
-81.74807802057883 -79.91962272272941 -1.0937186025505181
-81.68723826698303 -79.97423009411598 -1.0999698664423831
-76.33122167756788 -77.62526148148804 -1.2455807254256768
-76.08222679217363 -77.6635652135137 -1.2502427146046888
-75.60479919424816 -77.48807137240189 -1.2574801961450102
-75.04307984762141 -77.43136596524161 -1.2635272010283782
-74.41220602546184 -76.62427395191104 -1.2662381088568437
-81.59811411333878 -79.7673735892507 -1.103639515925979
-81.464354666304 -79.63955370882259 -1.1097251751866157
-81.38046650619664 -79.47463166398636 -1.1168151302301885
-81.36917193894661 -79.43153002588899 -1.125330135553522
-81.40373987197478 -79.36409486941875 -1.1344044516645984
-81.38109452787023 -79.12332915736862 -1.1419779605898448
-81.40109325697458 -79.07832921147545 -1.1508028786044429
-81.33067613298569 -78.6803953919043 -1.154622001686561
-79.75986409292331 -78.08962204093217 -1.1978181308619764
-79.49267663833136 -78.27529252869039 -1.2024578182004257
-78.91377286376377 -78.03913985347494 -1.2087328100099775
-78.41243805730045 -78.08284784700832 -1.2156248646292105
-77.86518005953542 -78.01520313246691 -1.2222425795016112
-77.27480147913951 -77.73123213492839 -1.2291884075253927
-76.83416672417322 -77.76946250839433 -1.236537290462549
-76.57303234169119 -77.73112097674029 -1.2417077510053782
-81.49021600964434 -78.97842385140594 -1.1595389859719916
-82.31608767007334 -78.83060278066215 -1.1664943926381066
-81.14920330939377 -78.30477785637 -1.1937886768144097
-80.18292392103778 -78.40696742974231 -1.195450273353584
-83.59267761657334 -78.80918848105932 -1.1741877897989523
-82.65963181917414 -78.38677208592854 -1.194615095256217
-84.20914110716596 -78.82065414975203 -1.1792343452707605
-84.34412065688602 -78.50378751892829 -1.183468986460946
-84.07320324212368 -78.5035291798832 -1.1910986318881593
-83.75482845411378 -78.89972403533135 -1.1955384445844186
-81.41195451174158 -77.93073493424993 -1.0576275895356475
-81.56529466026201 -78.4184318309647 -1.0649623656443827
-81.68590852119695 -78.42371369629417 -1.0724007301965333
-81.55411273839266 -78.23175806115094 -1.080304287246678
-81.46635145273677 -78.32139711869989 -1.0889518896390877
-81.2751220074497 -77.91822547634462 -1.0946324779934637
-76.04438893947534 -76.06592415973248 -1.240568119021878
-75.74756515473572 -75.95415518920505 -1.245864521674814
-75.32530087762298 -75.86935401321456 -1.2531171386808337
-74.92048855827383 -75.67105242640422 -1.2592867899728983
-74.34642616734594 -75.62864087671288 -1.266229718557704
-73.83622342809603 -75.10308784208462 -1.2691903271934262
-81.27976372095108 -78.19780539366745 -1.098517774610541
-81.11058689439473 -77.99554622085778 -1.104710308080201
-81.47366133738348 -77.91482598712373 -1.1129694681002937
-80.97230959421607 -77.72922610999302 -1.1206670865517314
-81.02680584372443 -77.8044186058461 -1.1286048452349136
-81.00002092758719 -77.5455766131121 -1.137042566192128
-80.99534214805368 -77.43564223079386 -1.1456539754833586
-80.91828499249314 -77.04901910981128 -1.1512478620927253
-79.4766739153195 -76.62606914180057 -1.1921015408427116
-79.08079421640723 -76.55870780185398 -1.1970804813602605
-78.48922576101306 -76.43722861285863 -1.204398765600423
-77.97409710937735 -76.3758581619162 -1.2108572727792775
-77.44507188714482 -76.36292156201438 -1.2176929377332077
-77.315014920445 -76.2621904861254 -1.2267115862761646
-76.49444333291586 -76.05449975213844 -1.2307566118402125
-76.23463716142561 -76.0916501451239 -1.2366581293902021
-82.33609475277841 -77.22551091451109 -1.1125097823576047
-81.12201122733909 -77.5569773556345 -1.15674213077108
-81.75042755258845 -77.32234260742302 -1.1613483213719074
-80.77109209505194 -76.69771525868916 -1.1884883544545033
-79.82246348455452 -76.85036997992655 -1.1897738614642834
-78.15032203501961 -75.67492080124536 -1.2286129232044332
-82.98919666153738 -77.07059978946559 -1.1685057263951752
-83.49836373419942 -76.49673200500413 -1.172887105406578
-83.16876923780714 -76.83099696932439 -1.1880214021042872
-82.30915845629346 -76.79778693230985 -1.1892672961343314
-83.80612374441623 -77.03708717731607 -1.1788752788006318
-83.57124381739567 -76.88292570120835 -1.1847213205185434
-81.27270293224899 -76.45978394640713 -1.0449293637225756
-81.45424693540417 -77.06211199580679 -1.0523465737674593
-81.53006021191588 -76.96717904777175 -1.0604418001155094
-81.4074139973109 -76.8706770366069 -1.068655845350387
-81.28416309551322 -76.7762402802849 -1.0764285003355274
-81.10800321669896 -76.58795859579283 -1.084098690829485
-80.9479505971457 -76.44386381218266 -1.0906706357804155
-75.73480676585869 -74.3929100816982 -1.2344544636597925
-75.39151213705549 -74.28362950509312 -1.241038494749019
-75.02461697566395 -74.14892960693946 -1.2477952295432606
-74.64030787404513 -74.04491939735105 -1.2544865547061543
-74.17269446905088 -73.92308013018713 -1.2623453367675952
-73.66359708870381 -73.94869702662828 -1.2687091892535718
-73.11430448268091 -73.28701861407116 -1.272034121400419
-80.87748222383826 -76.4363883931931 -1.094377934788652
-80.75658628602724 -76.44310244913811 -1.1006248968865018
-81.17836166463489 -76.26187713110855 -1.1082361872172664
-80.59792079011483 -76.17365154201896 -1.1157224179218568
-80.57102484688136 -75.91439678881923 -1.1239194654524025
-80.58215012245785 -75.85726131822062 -1.1325789085138818
-80.59061719570715 -75.81281965406606 -1.1405960523956866
-80.548159383897 -75.60523468866867 -1.1479186642782366
-79.15527390280062 -75.08573772646888 -1.186318915646501
-78.66246156203636 -74.97221200235302 -1.1925026304177544
-78.13762416281918 -74.8787085310709 -1.1991125948202894
-77.63095111839206 -74.94033861611294 -1.206400512665782
-77.04940589418084 -74.73010550590071 -1.2127810050230685
-77.11024732191295 -74.54210672204914 -1.2217987202404157
-76.13672780825964 -74.44598894867607 -1.2258479405222875
-75.90896917394322 -74.48587705359222 -1.231388267554045
-82.12772331981928 -76.27363786023844 -1.1108237655991617
-80.72179871103026 -76.01935611002713 -1.1530722577217933
-81.32518385404006 -75.38238007451416 -1.156422638170737
-80.38724557117 -75.08783212861702 -1.1830382531563204
-79.49964215620706 -75.23106117227802 -1.18354901541295
-77.98636496861259 -74.70341238931108 -1.2253976263234447
-82.43780392475949 -75.52210192159959 -1.1632855866264438
-83.0875992366864 -75.30133956318254 -1.17142501504223
-82.78802520007142 -75.22235848932709 -1.1803158483244287
-81.7864719034211 -75.08334429495542 -1.1833632571070394
-83.4112326575763 -76.01475053573074 -1.1774759424125554
-83.27318049776132 -75.81071692261217 -1.1790974495514277
-81.10705231811163 -74.98074323472133 -1.0321925874205247
-81.26350154337239 -75.50549803279681 -1.0395196949810057
-81.35238050706351 -75.38714074910112 -1.0480085795045413
-81.22564395537083 -75.25780131048363 -1.0555123154544268
-81.10808917606775 -75.2458894266082 -1.0636313856253576
-80.96043590219429 -75.22755511415284 -1.072005565451992
-80.75980329595856 -74.99905799736082 -1.0795400805800772
-80.5355818523005 -74.72290557571696 -1.0867369504219688
-80.28855687714899 -74.33648355369625 -1.0921395290372193
-75.718570150916 -72.16783944030628 -1.21525892302717
-75.63468866210117 -72.4744697353108 -1.2202182670687172
-75.37620054266719 -72.66834499981432 -1.2284759785551582
-75.08030745964929 -72.79289969371465 -1.236317192014237
-74.67334065329953 -72.52461062236226 -1.2431033507971923
-74.29693248449908 -72.41859341089639 -1.2502775008827414
-73.88995534908126 -72.32828373387562 -1.2576626053750801
-73.50801517952141 -72.25038201437891 -1.2643919562712282
-72.97543933940935 -72.21003878770333 -1.2713191112627362
-72.43647652876763 -71.66352084504534 -1.2747423239015194
-80.41420528462535 -74.99142797034085 -1.0957319033254709
-80.88196499639888 -74.60568473679476 -1.1035804888603946
-80.1845038044078 -74.50422057100828 -1.1103203138659818
-80.21503698858263 -74.49512193407314 -1.119181877134914
-80.18641741552268 -74.32045463553942 -1.1277129812412392
-80.16880001805684 -74.21613452459236 -1.1352338831527533
-80.11472252173313 -74.0282440581859 -1.1433138257028064
-78.87911822351705 -72.75145602026973 -1.1749743798375587
-78.74117539904735 -73.41290202826653 -1.18044795138767
-78.27575210165216 -73.40345840858929 -1.1871991775553208
-77.66970907922598 -73.22532058612578 -1.194616715114579
-77.17990971567737 -73.15317529790268 -1.200995855891374
-76.59673998103597 -72.94716056014502 -1.207505718516722
-76.72538792544199 -72.92802864302476 -1.217369613301571
-75.83807622502661 -73.13283173772442 -1.2212314626920222
-81.86428957155583 -75.17029341785788 -1.1081849346610118
-80.91692228687147 -73.80590473330841 -1.1521943818962181
-80.08353322925137 -73.58248805122794 -1.1778913479829731
-77.62402760493423 -72.97262465646014 -1.2193295520680951
-81.9527835211129 -73.68855969047537 -1.1586246889998948
-82.42573813604656 -73.67305029345147 -1.1666160961951764
-82.22722493212264 -73.67698591349212 -1.1740515184735336
-81.32682046594283 -73.49363773269097 -1.177752650824381
-81.0327874376528 -73.5750297000999 -1.0205905768637658
-81.15100598262316 -73.97600016873501 -1.026726275759382
-81.17851478900826 -73.85672961904898 -1.0360671831862354
-81.06798564384789 -73.82041787408892 -1.043232697912347
-80.91991716820395 -73.68881821045898 -1.0510976979386215
-80.78628911160924 -73.69474701482235 -1.058872410526199
-80.56383117388675 -73.41937031686435 -1.0668294126457278
-80.35974901269225 -73.25845152335891 -1.0742668869541898
-80.17000811037921 -73.21166710938645 -1.0818147335865937
-79.9822185038583 -73.23162238658405 -1.0900906217692807
-79.78015913629636 -72.84415344667009 -1.093193069622374
-75.5271781588076 -71.346132969345 -1.2124188996393033
-75.331095086808 -71.21964701412821 -1.2161422741346908
-74.99064411177592 -71.13007773903315 -1.2238957892298232
-74.69032029650946 -71.1216388049154 -1.2313279723130717
-74.30139996702559 -70.87462192076164 -1.2384149163508222
-73.92440781521218 -70.62954782159015 -1.2447895618459142
-73.60132614061607 -70.72121433581029 -1.2523467808664652
-73.1791939710809 -70.61212610445935 -1.260083998399231
-72.75835521548825 -70.44493400877937 -1.2670894660812857
-72.29462212221313 -70.4600850243645 -1.2740466707178777
-71.7815527761863 -69.89373621568753 -1.2774185017677722
-80.4833534809398 -72.9392386765784 -1.0987410970881797
-79.74222017598397 -72.76200302825997 -1.1050961863633786
-79.76266459595678 -72.73755418827506 -1.1134212112243935
-79.71674917552293 -72.54291716183768 -1.1213508463395943
-79.69917247767101 -72.5138499297572 -1.1296371942746044
-79.64068698339574 -72.32438360622795 -1.13766523925072
-79.73375761560236 -72.25321541275282 -1.1432763922145135
-78.60380762739031 -71.59331654788458 -1.1709652261036494
-78.29581312201944 -71.7688444898793 -1.1750893923326746
-77.75548004345782 -71.64270359612931 -1.1821850315995144
-77.26964670001786 -71.54654305489827 -1.1887828189302072
-76.79487267242216 -71.53013305965686 -1.1955161743484917
-76.24569770945507 -71.39552357957243 -1.202143497146628
-76.25379915143404 -71.28274379731526 -1.2116221611852778
-80.4652420453894 -72.26890910370913 -1.1478424202355832
-79.82681805811458 -71.99084685565035 -1.1724662029026849
-81.4904293283894 -72.21763082538585 -1.1545315082502488
-81.7909449299049 -72.15488091665829 -1.1603605347797497
-81.51194586463097 -71.95127230215017 -1.1680783931426644
-80.79917541694873 -71.80816242791504 -1.1716384053753497
-80.93749566291713 -71.98620472318522 -1.0077095030287384
-81.0195101056074 -72.42722851364121 -1.0142731392449988
-81.03635202641284 -72.40085213344616 -1.0227185109042713
-80.86785821043343 -72.18798611288813 -1.0307428520653632
-80.72850276106841 -72.14263552407608 -1.0387281124234427
-80.55974992459599 -72.00988589627805 -1.0463455728262252
-80.38882767370988 -71.94002682140575 -1.0543056821310954
-80.20148395252838 -71.82052008621214 -1.0613493818537827
-79.9760816774156 -71.65706443381244 -1.0688313157525295
-79.77535460288686 -71.62355118226674 -1.0769236383312868
-79.51616644638604 -71.41245839124579 -1.0846603101159755
-79.31447545501264 -71.08078178835773 -1.0902750719117846
-75.14440414701984 -69.406892661974 -1.2049647885841783
-74.90668324880544 -69.60776713432105 -1.2115174356689375
-74.57281439952664 -69.36611919775328 -1.2179141140164622
-74.2368778884458 -69.29434257075512 -1.2257631433194724
-73.9158939420256 -69.26933799697741 -1.2335660532094115
-73.53474199320604 -69.05385390097067 -1.240879623239983
-73.21331659954761 -69.04737701274867 -1.2480160088412926
-72.86171948999758 -68.92990662906405 -1.2546195361099353
-72.49097257011697 -68.8839782758637 -1.2618987464284859
-72.09361937193948 -68.78598181430974 -1.2690919627945816
-71.57275380736499 -68.82966225066205 -1.276663463929309
-71.1050798948464 -68.18863723534865 -1.2806081024633693
-80.13008757309272 -71.35771511078617 -1.0939462240638023
-79.3189500539364 -71.13877952372113 -1.1003627228289767
-79.31902810480638 -71.05339808809038 -1.108771484829776
-79.2986671947263 -70.97115540952666 -1.116286086221874
-79.24446929478228 -70.84786962206991 -1.1251676017124166
-79.1856027994248 -70.6816854731001 -1.1329998028480233
-79.26361473616772 -70.60230385740472 -1.1383949179997241
-78.29715743767626 -70.32969714578456 -1.1666076280780813
