# .PCD v0.7 - Point Cloud Data file format
VERSION 0.7
FIELDS x y z
SIZE 4 4 4
TYPE F F F
COUNT 1 1 1
WIDTH 824
HEIGHT 1
VIEWPOINT 0 0 0 1 0 0 0
POINTS 824
DATA ascii
-94.4730479903629 -106.56965741570431 -1.4744928994319588
-92.83707284610475 -106.72183069023374 -1.4676075453328872
-91.36394203837311 -106.46982559213006 -1.460436816689092
-90.34772438061233 -106.03592080244691 -1.4553849394674685
-108.35049991858419 -106.18722300977045 -1.5208312310429597
-106.72549058170304 -106.18170262434221 -1.5189201972857476
-99.51965582481327 -106.15314472860292 -1.5006500071423319
-98.97329716769856 -106.37920341885652 -1.494594138662031
-97.5653402346492 -106.5547019246742 -1.4879978317524287
-105.89322975720644 -106.244066829524 -1.5219666150867621
-105.34080855940464 -106.10479368474695 -1.5242736412366775
-99.76024909219842 -106.30584447865685 -1.50644955789154
-104.34779210564068 -106.15738764838599 -1.527381493339874
-103.26663095206055 -106.12745321389073 -1.5283500506616587
-101.07408583031213 -106.1098125871588 -1.5211149965761424
-100.38087299984525 -106.41630261389709 -1.5153977909769445
-102.42413971377285 -106.3283650395229 -1.5281083233063895
-101.8485815394557 -106.55762362040434 -1.5267718459456654
-117.88690043081026 -104.0960817544659 -1.53372727813673
-117.03568204780461 -104.67402698490883 -1.5334234059889371
-89.1254847931952 -105.26942319916553 -1.4488106842920967
-88.05090000987671 -104.87430177621903 -1.4435249807617243
-116.07998006215324 -104.22182749469022 -1.5312519431592333
-114.82986226558623 -104.48415009388006 -1.528842624314474
-113.2405114448017 -104.45380768782157 -1.5258621786679694
-111.61919836141766 -104.46114403550847 -1.522838028957481
-109.94561414733172 -104.52454944534276 -1.5196630353047649
-108.77656866295746 -104.36071580079523 -1.5169734297291477
-96.70661041399191 -104.99143320691111 -1.4809704778508326
-95.56172380771415 -104.89772497449704 -1.4757947483573048
-94.23646598559786 -104.92714098873087 -1.47015824601653
-92.60667750774199 -105.0207849449465 -1.4633355686631433
-90.97917503580632 -105.03482545421876 -1.4562342119078187
-89.83530971441338 -104.9805718370955 -1.451593467977004
-107.92533123672746 -104.45254759830014 -1.515556166566303
-106.38941158100488 -104.53602108199212 -1.5138471625792331
-105.47398783943758 -104.07824987180429 -1.5148529474913703
-99.25891907037926 -104.5258827381868 -1.4959224998519547
-98.72806358388871 -104.81574746604906 -1.4902116593024026
-97.43498690945493 -104.7282641163238 -1.483597116410859
-104.9728797088343 -104.41435960927711 -1.5187701685751243
-99.54553621162128 -104.60504682720571 -1.5021426421720476
-103.98500814171703 -104.62749157636728 -1.522516567381966
-102.66821238204561 -104.58488249605182 -1.5225694185991714
-100.97707842191797 -104.49240048216754 -1.5165442553921815
-100.1549687405523 -104.70608743195383 -1.5106476588041693
-119.12957980624608 -102.50328278850901 -1.53409056769547
-117.80891754333369 -102.71736126696902 -1.5322461196304298
-116.87275177460577 -103.1657773204327 -1.5310730401356416
-88.56261643038849 -103.7560688083012 -1.4446826507238104
-87.61249949991218 -103.55068300737476 -1.4405880085749307
-86.1960011766088 -103.46336856241311 -1.4338581450143253
-116.1689665188324 -102.6395365340875 -1.528178670986489
-114.64526260825969 -102.82957740656471 -1.52484446038223
-112.9098671465907 -102.83730923933685 -1.5214984066097488
-111.22709114900982 -102.83362524430683 -1.518047799142622
-109.58045314505297 -102.80519539867484 -1.5145675101130591
-108.39258604439976 -102.89551735403127 -1.5124386037149498
-96.45343342169372 -103.09587765819435 -1.4758414607844403
-95.1790791798874 -103.23290391807154 -1.470658507214486
-93.71315119887396 -103.3046043678931 -1.4646584110379288
-92.27866396170907 -103.29112247430506 -1.4585843353545478
-90.76942583452832 -103.39892268140237 -1.4523839656862363
-89.2296698659793 -103.29135514620371 -1.4462293262215988
-107.53857589921073 -102.87897933628304 -1.510650651556575
-106.21579292335721 -102.98662434997695 -1.5088511747171214
-105.18103280506547 -102.61030609958846 -1.5098072212382427
-99.02547048297926 -102.94066604960607 -1.4910621570272193
-98.43170017854398 -103.06346184814865 -1.484737577554021
-97.17561148803661 -103.11949817703629 -1.4789535034194374
-104.57864410504918 -102.75097476112303 -1.5133360618460636
-99.34741510462314 -103.10633069332681 -1.497833772966459
-103.599749888066 -102.8340841149614 -1.5165471806247282
-102.54670562649427 -102.88550229301913 -1.516816384009153
-100.85741922499271 -102.85271888881726 -1.5115183594274881
-99.91395649574889 -103.03305123154121 -1.5053818287048708
-120.55861300394707 -100.76135231188361 -1.5342003728702387
-119.19880239562104 -101.0764408433968 -1.5322943412745615
-117.6253017461778 -101.0160283604733 -1.5284739655573514
-87.188084292607 -101.96936293915097 -1.4362954200226905
-85.7593950499757 -101.88983669001772 -1.4308754340336232
-84.3285245374027 -101.92403483180397 -1.424814063776766
-83.17655945505055 -101.31352828511686 -1.418581255582666
-116.7839133753154 -100.90157674426968 -1.5260687278849594
-115.87862657062888 -101.0611856184072 -1.5240796816174094
-114.25444279255538 -101.12322311754238 -1.520205719995285
-112.63540976994915 -101.19044691679775 -1.5169311786451976
-110.79628276335005 -101.13831362289415 -1.5128833406640376
-109.27604028670511 -101.15160299666269 -1.50964535997579
-107.90704232268992 -101.45320762768189 -1.5075536187329086
-96.23626322726379 -101.51518399102498 -1.4712823386537606
-94.89795990015105 -101.55434579920009 -1.4658302511198327
-93.50853712139156 -101.6669117087102 -1.46034638029254
-91.94827426312213 -101.82745031509765 -1.454227048297522
-90.33152597281335 -101.71093210710089 -1.4472895787973816
-88.87433901808015 -101.93270540747645 -1.4423332106930837
-87.82738078206636 -101.53119460041047 -1.4377782268013521
-107.00861443697339 -101.34003440616448 -1.5053667930357804
-105.77331143846078 -101.34308886356365 -1.503517780896647
-104.85944399914781 -101.12808365528782 -1.5048656299029575
-98.78490456971274 -101.33097003848448 -1.4859042585833657
-98.125812485361 -101.64392183710554 -1.4799354975916093
-97.15147485611861 -101.80256457593427 -1.4757961739646068
-104.19989454767236 -101.3047275484529 -1.5087654175311986
-99.17427533431855 -101.29522782533962 -1.4935883760543005
-103.37285824367491 -101.499617977942 -1.5119851115717358
-102.10248310852033 -101.35687352912488 -1.5110132271980703
-100.46347744765397 -101.35228223068603 -1.5052941665746502
-99.75491714182095 -101.47869492655664 -1.5011234593218072
-121.91845786564942 -99.11758851109843 -1.5342759779754265
-120.38158195261643 -99.40540975975034 -1.5319800411489641
-118.8076470114308 -99.41284310237569 -1.5281131179499445
-117.63766588642615 -99.57930862417804 -1.5254516683598247
-86.44647076673118 -100.17820098406341 -1.4301720138300356
-85.49463500162408 -100.31016052085423 -1.4269719254021442
-83.82420946693006 -100.29407596422692 -1.4208217299387682
-82.42694081838187 -100.3750338440224 -1.4149627136958687
-81.13001247923302 -99.68009852633249 -1.407947588830115
-116.76973616202574 -99.45042377885427 -1.5229186713643688
-115.48054944898931 -99.44251878342592 -1.519390190102435
-113.9952855646507 -99.41436533289213 -1.51566266339804
-112.34988124985028 -99.524809708611 -1.5121408730181998
-110.59970812069567 -99.6195543822811 -1.5086055547232602
-108.99522729903836 -99.52416008636949 -1.5048445550079041
-107.30180883940213 -99.6367294520899 -1.5013818714014975
-106.28415322185144 -99.32620790333179 -1.4983785746290865
-97.10939672531552 -99.60474771927575 -1.4705108793016517
-96.25399657165038 -99.87863194330113 -1.4676147220354807
-94.68627158746702 -99.79229495969057 -1.4610734158251133
-93.21961005680912 -99.98161415491434 -1.4555163880958646
-91.71244831680535 -100.06149144973828 -1.4494896338432888
-89.98116704305627 -99.94175403396278 -1.4424865067594506
-88.44748582952099 -100.13090887921147 -1.4370957702854499
-87.34318412626962 -100.19895445769137 -1.4334146755408679
-105.61463010481751 -99.6915919058031 -1.498214075847592
-104.5133796054642 -99.63216420459635 -1.499986126344727
-98.54700602533535 -99.67047132231663 -1.4809252724058055
-97.93258829130058 -99.84615562297746 -1.4748181621325052
-103.52938973726232 -99.68470604740048 -1.504490139448842
-99.02187660781428 -99.68863227376288 -1.4897912008438363
-102.81682377489331 -99.75465300425715 -1.5062030274646585
-101.85339508625947 -99.51907878298968 -1.5044778626545052
-100.30540217297307 -99.66783643182336 -1.499879193491711
-99.6099648051082 -100.14274089860633 -1.497333498258398
-124.1741426213762 -96.87996931376284 -1.5348198473065813
-123.17212322142787 -97.47061492568356 -1.534189983062606
-121.81342427585903 -97.60179811912072 -1.5320054432894403
-120.13766217566507 -97.56453923188556 -1.527600759249626
-118.52729742903301 -97.80852557000972 -1.5239362856444563
-117.1076127082038 -97.53205590787482 -1.5194720886516695
-86.23689223325707 -98.6070878315336 -1.426167626184367
-85.0457283844407 -98.60868535233647 -1.422024447567969
-83.45450065792814 -98.67715303922361 -1.4164438779679513
-81.99859494964731 -98.61659980926176 -1.4110807634166844
-80.43661536766335 -98.72780212487847 -1.4048364975291665
-79.32787177935404 -98.30146250603727 -1.3992100446218625
-116.56191321963423 -97.86912368786022 -1.5187419812309817
-115.18889733225441 -97.79344742093163 -1.5147577346946433
-113.70942531953317 -97.84460927636958 -1.5134554276850956
-111.93595908674665 -97.82819088173727 -1.5069552599844593
-110.50452986509247 -98.03862326066526 -1.5043738318367468
-108.72269151087943 -97.94143890539516 -1.5002001421950717
-107.01659205386642 -97.98913265091137 -1.4964969965850259
-105.66800822680078 -97.72131881327557 -1.4927897435463513
-97.09893552983233 -98.1128650765167 -1.4670660416662493
-95.95996822411752 -98.15636974712643 -1.4625807961768675
-94.2670477521563 -98.19923635771983 -1.4558692071827306
-92.80650534669738 -98.28070703911503 -1.450112718536159
-91.30184476797514 -98.41604639800211 -1.444258453840958
-89.47701101857102 -98.4860473859063 -1.4396766921824982
-88.25843666980491 -98.39944639555416 -1.432652656630753
-87.06702826116036 -98.55285385825998 -1.4288994984820567
-113.66164300779789 -97.13203023815996 -1.51686883565087
-105.04729384387291 -98.29620791161415 -1.493235639897419
-104.25707491292646 -98.12157688836018 -1.4945187444934762
-98.32496918900588 -98.05299451924203 -1.4763612613438621
-97.82244182598323 -98.2695469637853 -1.4706443678457197
-89.04054205069393 -97.91467929749808 -1.4422830413584742
-103.2051619501776 -97.94545525427517 -1.4983781564356
-102.1837701195315 -97.44723585849623 -1.4981134313049647
-99.41766089337143 -98.05322488835772 -1.4911407923067699
-98.83153398919252 -98.08628351977089 -1.4854593025558984
-101.53102973373089 -98.05680657996245 -1.499071925792568
-100.23091184597705 -98.0244023205937 -1.494965056386731
-125.53540207585112 -95.24981368364368 -1.53494508357066
-124.60566196152162 -95.95052081876467 -1.5347639418691794
-123.03808605982371 -95.99943422546342 -1.5317818951696272
-121.37125544350525 -96.05883320690985 -1.5275709966715436
-119.78914954886407 -96.11240419640481 -1.523535129570633
-118.1431183282744 -96.0767346195262 -1.5189686156910494
-116.74088603239944 -96.06315846218955 -1.5150489760011752
-86.15060556701786 -96.90846487498686 -1.4221486739634106
-84.69961026549103 -96.93763472848276 -1.4172318751157944
-83.18981248236732 -96.94665443621616 -1.412037767884336
-81.70640464678436 -96.98482956289104 -1.4068498923543888
-79.95819613057094 -97.03077950244567 -1.400661270419075
-78.57640264835993 -97.1937428364514 -1.3952156612110758
-77.29218328182486 -96.64519282050826 -1.3888419904294076
-116.00709462023846 -96.12534219124741 -1.5131574423387562
-114.78279495206445 -96.24876231044115 -1.510010172590557
-113.3807491604374 -96.18904819196894 -1.509035212152573
-111.68265113909504 -96.26625442600498 -1.5024148367049819
-109.94605799616117 -96.16440468342398 -1.4983336729787413
-108.27241793035243 -96.26283127544494 -1.4948499635849357
-106.72790738840447 -96.36216288024961 -1.4916369063786685
-105.18569488091465 -96.29513925713034 -1.487947404756809
-97.03474197028655 -96.54803423776909 -1.4632102228229626
-95.59964538284046 -96.57346412500993 -1.4575511913988124
-94.08510489365904 -96.62727309162932 -1.4515898100262126
-92.55351915407537 -96.84108763113889 -1.445894999335271
-90.98225227715054 -96.78162880256664 -1.439367583841594
-89.17169824266634 -96.7583656235353 -1.4356805505315762
-87.96905652522675 -96.78652090246672 -1.428052267482983
-86.86009695866481 -96.93454449904277 -1.424638366049596
-113.2609116300508 -96.19902792168307 -1.5136885070166473
-104.55486529402194 -96.77542822742959 -1.4880914906752007
-103.72214524060256 -96.19364592290042 -1.4886173835435705
-98.12720360028419 -96.43043628070245 -1.471814185363987
-97.78829067686969 -96.6211444641494 -1.4667373359237244
-88.93307113854223 -96.93346038630767 -1.4399119118905197
-102.94124940630365 -96.3942293873883 -1.4929144018376221
-101.4995923229217 -96.29460320748481 -1.4929777669103652
-99.6489277362603 -96.39164537561891 -1.4874993952472888
-98.59639734083792 -96.36223832058894 -1.479979938781737
-100.95746353285148 -97.07056484926757 -1.4944793488302315
-100.46053194001854 -96.9104459308484 -1.4924662711244627
-126.88844695424493 -93.612524662339 -1.534906597520096
-125.91399910192085 -94.23844051472244 -1.5343995788120057
-124.26111757874457 -94.27121724613727 -1.5312767347700253
-122.70511128694145 -94.28669219038976 -1.5272300714270706
-121.11511881552067 -94.42532452273801 -1.5233180408263993
-119.46102544822041 -94.56382358035479 -1.5191098120898714
-117.80428734234631 -94.4883713349117 -1.5143411788345233
-116.17041151028799 -94.36236564033948 -1.509434465353287
-114.79334682593112 -94.09980906466551 -1.5047938529423273
-88.28149268629986 -94.43311678620225 -1.4234870554818435
-87.51688270150757 -94.81962696998764 -1.421884613382365
-85.98534221016808 -95.16521458047724 -1.4176447222963082
-84.47174538632362 -95.43874576661202 -1.4131563695704912
-82.8512083108443 -95.3220892702939 -1.4073473948349045
-81.2780535679742 -95.3665209867036 -1.4020117183683756
-79.66386785662453 -95.43129476866368 -1.3964548994311536
-78.19173109618235 -95.49508140762711 -1.3913376134124857
-76.6499547951524 -95.60592282889759 -1.3853514393716995
-75.42855253937621 -95.16911364715833 -1.379315634270774
-114.6018205279794 -94.78585398420073 -1.5059237457633223
-113.03478394731665 -94.53180719842291 -1.5045692085086098
-111.4244529911548 -94.58887807319302 -1.4975105146846515
-109.75227067703696 -94.73602520551117 -1.494194221638282
-108.00868819581027 -94.72136598502883 -1.4902033389778413
-106.50789001052671 -94.75572192355969 -1.4868660974691414
-104.83111522494038 -94.72162756757976 -1.482864726661464
-97.506616061601 -94.12027554042909 -1.4596303913928468
-96.8627595838147 -94.8590967332163 -1.458476275779634
-95.40069687632841 -94.99312162018387 -1.4530421791838593
-93.64534221585694 -94.98410145643608 -1.4460507673842482
-92.20223816110995 -95.05256168026149 -1.440446249066761
-90.60869694757854 -94.99952960271841 -1.433870034772003
-88.77742494701218 -95.14996711745212 -1.430715882130044
-87.84561068963387 -95.459269812272 -1.4244960117664305
-112.91765231145268 -95.10648929860433 -1.5101403229778443
-103.30621946678808 -94.62606412376525 -1.4835379746458532
-97.97294058459704 -94.90959073362025 -1.467909952759469
-88.77915910241296 -95.18283324344085 -1.4354038967330212
-102.40499015671277 -94.57609996148707 -1.4868456137423998
-101.06200065924484 -94.67961250672833 -1.486478857670309
-99.58121977609454 -94.8253401253628 -1.482397544045234
-98.41367834927136 -94.75996504155648 -1.4751010059938872
-128.1108498733894 -92.06120710726233 -1.535166476484134
-127.26409503827637 -92.5490796081653 -1.5345607578667075
-125.4258805024562 -92.59916900051454 -1.530737252627195
-124.0026820417612 -92.69710013496287 -1.5271738448301453
-122.36862179322557 -92.71788495020073 -1.5228528069965976
-120.84969703244597 -92.86832123176563 -1.5190291256712884
-119.07310446835756 -92.75647354806449 -1.5138371243327464
-117.47889150622993 -92.7443184494094 -1.5092709295066797
-115.94604619348459 -92.84293458863294 -1.505058865461315
-114.32101397444694 -93.01842927328882 -1.5007556731113239
-113.39586752961472 -92.71177456962586 -1.4972804656147796
-88.19329970056629 -93.60368125761525 -1.4212158593200024
-87.32847417890312 -93.55820051679869 -1.4182468162500625
-85.6704144802891 -93.62691630607435 -1.4129425311698716
-84.143084514827 -93.76578051054337 -1.408224314029953
-82.48679809098256 -93.67398111730058 -1.4024627853196445
-80.97122420424418 -93.57080037319606 -1.3970565068436787
-79.47889489362265 -93.80908100040747 -1.3924280833610216
-77.77962989936916 -93.86284337823902 -1.3865919480794113
-76.18030205606676 -93.84778684913167 -1.38089128049188
-74.69643544720692 -94.00898749079957 -1.3754537862698912
-73.48129536876966 -93.55094654437889 -1.3695375575192934
-112.6777067881898 -92.86655293306498 -1.4995404201386224
-111.07257510676317 -92.84625319069785 -1.4921659689423619
-109.48779591797084 -92.96964240623716 -1.4889580523775197
-107.83805213354286 -92.92599784370057 -1.4850455733909493
-106.242984605544 -93.04616119243117 -1.4816144959533442
-104.57329353455839 -93.00985228591526 -1.4776029866518052
-103.49858522236399 -93.03658951711427 -1.4757618413205418
-97.38139354926446 -92.95140663739797 -1.456398794414251
-96.60120361731695 -93.20843297656819 -1.4534346903114426
-94.96684274591554 -93.24032066551223 -1.447101714760983
-93.46769827104816 -93.28942166805511 -1.441369352395414
-92.0007648299179 -93.41690966190349 -1.4358676966123312
-90.4459968262602 -93.43279279685109 -1.429642591350425
-88.57866576568075 -93.49252388256448 -1.4256676641416919
-102.9237149554714 -93.09633203077905 -1.4783573341963738
-97.83121904994786 -93.29865140155493 -1.4641576187573708
-102.01387233815292 -93.11489427004243 -1.4816809563204354
-100.98271068719752 -93.14325147126209 -1.4810087947733939
-99.27811364102786 -93.09884076012156 -1.4757712454553547
-98.23593752960788 -93.06023046935412 -1.4697538360168994
-129.44418628408198 -90.31250168507374 -1.5353018102001759
-128.52955143910822 -90.84821337960777 -1.5344230772415877
-126.91931659241459 -90.972069853791 -1.5311413427437903
-125.19261926577872 -90.918717554739 -1.526414289387747
-123.59714558583954 -91.02397035445028 -1.5223338091778467
-122.00128663343233 -91.04028469147195 -1.517983853847631
-120.38204319892057 -91.12314373353952 -1.5136588063574594
-118.89662959285701 -91.14290061912287 -1.5094595751546824
-117.28415977745665 -91.13016228259063 -1.5047424672583172
-115.65297055020483 -91.25173152010262 -1.5002881336214606
-113.94733308466931 -91.19948672201278 -1.4951403276690356
-112.58422441441175 -90.9909762737624 -1.490835431529407
-88.15374866055248 -91.62941912575297 -1.4165593926060729
-86.95764905054953 -91.95040408110802 -1.4131300928154498
-85.45665872065595 -91.84875546870397 -1.4079805208929974
-83.79420940923572 -91.93601706610356 -1.40271428107764
-82.17766508855179 -92.06659810983761 -1.397682830937585
-80.50265245971072 -92.00869653492674 -1.391964873513769
-79.02459487467058 -92.14524020583471 -1.3872426875825965
-77.56123107751944 -92.16731066450556 -1.3822465612757038
-76.01077510607037 -92.27098864026809 -1.3770677134127902
-74.43141764729941 -92.32449862817295 -1.371622185619649
-72.8286518301867 -92.52683205020222 -1.3656828947481001
-71.47213736863785 -92.00504488763463 -1.3596073452806126
-112.38663708691233 -91.28132448457691 -1.494995681508292
-110.71511848833224 -91.22558503158152 -1.4870675552198371
-109.06571957300571 -91.29300386450878 -1.4835392312461337
-107.57992209123233 -91.3485702764889 -1.4802485752202956
-105.7948123670059 -91.39071488491597 -1.4761091227777186
-104.17771890425726 -91.37328825895665 -1.472235795680627
-103.13264126611494 -91.3890562709285 -1.4703674555719062
-97.239215007713 -91.67668910647886 -1.4528291418372306
-96.31518226685017 -91.64465430408555 -1.4485219288468567
-94.65744799019438 -91.71061106063253 -1.4422294965716471
-93.25655421535444 -91.87703219069441 -1.4372007282342687
-91.570001016498 -91.87185065240052 -1.4305382068066754
-90.14432329695879 -91.93294348147433 -1.4249456252714192
-88.22338995027312 -91.92134258350221 -1.4213730481873523
-102.36954097300529 -91.39807735661508 -1.4731679465281053
-97.68282653515539 -91.45974468348591 -1.459612197317161
-101.63747979397566 -91.63818030845536 -1.4762995381281292
-100.70058542291243 -91.43190436004713 -1.4745024334095942
-99.00458450732165 -91.39910880577396 -1.4693159062636605
-98.15059962611174 -91.79671621081171 -1.4661600014987308
-69.48345749548768 -90.30117226009222 -1.3476313718757578
-130.82074751652962 -88.66484565625349 -1.5353861860271505
-129.71303918994886 -89.22452184812076 -1.534131211753008
-128.12576160137243 -89.29988593866602 -1.530683271574509
-126.61053943362235 -89.30813928457732 -1.5266227900315785
-124.9875337051649 -89.4190678539726 -1.522459858918742
-123.3121090315829 -89.30895602614132 -1.5176022366275395
-121.73838668578932 -89.43755115828174 -1.5134788080291115
-120.04912098102021 -89.38153440251996 -1.5084874634236993
-118.56881356047451 -89.66978555651589 -1.504892484745957
-116.92763243035928 -89.569821153746 -1.4998639269540899
-115.3667452504347 -89.72388750665202 -1.4956527047225514
-113.68461490922734 -89.58139499218753 -1.490323566193891
-111.79195448794746 -89.7238622155025 -1.4856268512705728
-111.08174080645088 -89.5434199074727 -1.4833881823899657
-89.14185924636085 -89.87757460751033 -1.416103073607857
-88.20599473762186 -90.27311676854738 -1.4136863076040518
-86.68387508727832 -90.28220037213752 -1.408163238774208
-85.14163197404469 -90.28597175190663 -1.4031512754980031
-83.50271059675218 -90.3561360473939 -1.3979725919239447
-81.90645053970168 -90.46549347998494 -1.39297519341549
-80.44812800623463 -90.6251767351492 -1.3885350541013513
-78.7415362811369 -90.55150285314213 -1.3826802854294058
-77.22446842911351 -90.55687030457085 -1.3775694370061662
-75.66646684843491 -90.54930542885779 -1.3721978577961835
-74.1241503012035 -90.62105672182194 -1.3669955824345414
-72.61678484310507 -90.73989910587352 -1.361986403959676
-70.9346040653473 -90.84461658339443 -1.3558163956838296
-69.66389767105416 -90.49458689091351 -1.3501291586138564
-112.11928429587564 -89.59018001177931 -1.4904508799509624
-110.49285786522394 -89.75452241293807 -1.4826534148657178
-108.81956961440333 -89.69735077758111 -1.478723830271095
-107.24171073192815 -89.71384291824998 -1.4751032091195162
-105.60719162407749 -89.7699518398143 -1.4713581626993597
-103.9476786779917 -89.75718491192062 -1.4673577694195619
-102.83707631343508 -89.91587109958525 -1.4655579971980115
-97.0207598454803 -89.90648513439263 -1.447730322975894
-95.92863191550768 -90.00974633117451 -1.4430947226977862
-94.5514283439449 -90.02224468638724 -1.4377989800515543
-92.88137369887534 -89.99444624878075 -1.4312712416896245
-91.49278499946084 -90.22573054788671 -1.4263597293384087
-89.88547961856804 -90.17379807248732 -1.4198116663295997
-87.78900281515837 -90.32000890989858 -1.4170137610145122
-101.7602304082919 -89.8827780041625 -1.4686351042413988
-100.70654721303434 -89.59307134767393 -1.4680919826519032
-98.4036444299783 -89.4990738996148 -1.460811445004927
-97.56566084158707 -89.99331655182351 -1.4557458382949815
-100.03103536673319 -89.91198840760171 -1.4679079709642264
-98.95828396186634 -89.90699946066663 -1.4644592167478776
-132.11176082092163 -86.87808286735356 -1.53377922007844
-131.40045987643248 -87.81057292845219 -1.5339377999810482
-68.74014437682037 -89.67135192866849 -1.3437023942302588
-67.51478634754521 -88.8360212119769 -1.338116468946107
-132.06041525728472 -87.11895619440165 -1.5354279723026685
-131.0736376368839 -87.47612866030411 -1.5342107073642022
-129.4501021766773 -87.60266384240667 -1.5304794639979298
-127.80778424377505 -87.52770120592454 -1.525855317138003
-126.31218163514345 -87.61886187569952 -1.5219592045850376
-124.67897134674274 -87.73140534342548 -1.5177282140604536
-122.90563471245714 -87.75204837467996 -1.512751033172684
-121.4665031972941 -87.75125984554167 -1.5086023815663943
-119.77705471420485 -87.87530387710956 -1.5039999198336806
-118.22895232654048 -87.7866891558325 -1.499268899034646
-116.49778018025671 -88.03597819180091 -1.494782790405656
-114.96891107285226 -87.83467966985047 -1.4897383584664947
-113.44089984036727 -88.0269034583691 -1.4856826110401862
-111.91783546456992 -88.03729014471433 -1.481943154656388
-110.60722136020354 -87.95133014800037 -1.4781074012491149
-89.11812729449753 -88.48717979862647 -1.4127911159666484
-88.13102018817314 -88.76719354065055 -1.4098872389446417
-86.37544641878192 -88.69833520022338 -1.4032483329545866
-84.85933000802946 -88.79368292225352 -1.3985671533923592
-83.28384663703683 -88.75746300128621 -1.393362824627389
-81.67993364575655 -88.78981162957679 -1.388213668029322
-80.13703855352034 -88.77580064041227 -1.383108844280049
-78.55144566195186 -88.8545718502413 -1.378050428630635
-77.03752639293691 -89.04237934964691 -1.373464858545653
-75.37670831499405 -88.94528203141174 -1.3676714013464617
-73.85674391354414 -89.00421020484096 -1.3625995849848755
-72.25592070403553 -89.12694749060421 -1.3573265232315936
-70.68162195883028 -89.05391520889636 -1.351708534151597
-69.089508057989 -89.21103624906024 -1.3463200524854033
-67.71496688082462 -88.89388398078941 -1.34041679952726
-111.80956663435072 -87.9376196151073 -1.4860899610841827
-109.74810172943157 -88.01987429630896 -1.4763662497775951
-108.46629428314478 -88.08339344877385 -1.4735929469697453
-106.95298297051417 -88.11391107530828 -1.4701286113121033
-105.12322834219128 -87.99814244291302 -1.465449024699592
-103.66973789539313 -88.18170542568251 -1.4624847746950984
-102.3728048226695 -88.09358565310296 -1.4596845913365815
-96.87622377221766 -88.45409602735789 -1.443808469165287
-95.73189189749675 -88.23641630572298 -1.4380762636499664
-94.1349989654529 -88.48738127218816 -1.4324925777189519
-92.64540481570153 -88.53651231341402 -1.4268480335835458
-91.03611044145353 -88.5785703582524 -1.4206547212058596
-89.81023369999248 -88.59409157637974 -1.4158273904000356
-87.44747446742593 -88.56155140191053 -1.4121593928906429
-101.50904613311806 -88.20780565649625 -1.462217450233312
-100.08184290156606 -88.14842444366958 -1.4618754063413435
-98.59104874596623 -88.2131744728779 -1.4575838040035678
-97.33879658708794 -88.23275362738558 -1.4497068917668707
-133.44505571302443 -85.36005964610675 -1.534415142140895
-132.71047465897598 -85.88776448808883 -1.5332352502370887
-66.89815863986271 -87.74272107439701 -1.3335637060137897
-65.89730845659801 -87.3577499951637 -1.3295767811099
-133.36052587764357 -85.3623536684166 -1.5353827296357845
-132.3206490312357 -85.77889765033902 -1.533780407829599
-130.72226805803894 -85.92304064559119 -1.5301565507232653
-128.9978090698357 -85.90237577615237 -1.5254235895232684
-127.46736619639773 -85.87804508511675 -1.521152184971476
-125.90102161306935 -86.103642984549 -1.5173175784745179
-124.38168366737062 -86.08255024367642 -1.5129388599945277
-122.62666066346102 -86.1608516454607 -1.5080731938367098
-121.11635775315199 -86.16131448074697 -1.5036891953653215
-119.55116043288434 -86.13551968451362 -1.4990554305336146
-117.90234184804628 -86.13379384225502 -1.4941795670573175
-116.38375287871864 -86.27157604322849 -1.4899878504396358
-114.75167167035238 -86.23035269085462 -1.4850254992446457
-113.19070060123858 -86.27357330369365 -1.4805086640066973
-111.78866592581572 -86.43918806120139 -1.4775969809828464
-109.94636681151579 -86.30756340792063 -1.4722322473634895
-108.88280287645178 -85.75354280868001 -1.4683290130969324
-89.2113435950749 -86.833832359848 -1.4092859434839673
-87.5600735082838 -86.84250175715835 -1.4035006314844019
-86.05252393637801 -87.00036907364031 -1.3979988020332288
-84.42728524740835 -87.02961747065855 -1.3927818362540172
-82.91312710443705 -87.06964319826511 -1.387963874065844
-81.33158384629643 -87.12252212703567 -1.3829906232055218
-79.81440271710616 -87.19658072298296 -1.3782491442724742
-78.24307557564424 -87.3516792457442 -1.373460980950761
-76.65162778526606 -87.31242719288164 -1.3681027775396126
-75.04214789828359 -87.33876577850394 -1.3628201180424975
-73.55726254193564 -87.3553102842464 -1.3578927781662042
-71.86587523029561 -87.34308314506532 -1.352132763037602
-70.34053537059538 -87.43249455990568 -1.347077116589124
-68.82954906036413 -87.56619722951574 -1.3421296180435998
-67.23003792799545 -87.59677948834154 -1.3363489566836306
-65.85761726154493 -87.25637005074591 -1.3306599726016701
-111.4485567531865 -86.28618493865422 -1.4806384316326098
-109.33392302412663 -86.71455240232315 -1.4719309508140705
-108.2091641706006 -86.409401912716 -1.468507821368655
-106.61041425618636 -86.39683899441488 -1.4647000188380552
-105.05563941042186 -86.5046615465016 -1.4613053336929513
-103.3502626369897 -86.51642365006691 -1.4572488382273372
-101.91516719892651 -86.43756903781221 -1.454132900988931
-96.67014734948975 -86.60625395904381 -1.4386595212786675
-95.4408541121911 -86.6099084134049 -1.4329950348435867
-93.81060281678134 -86.76343237285283 -1.427121504594161
-92.25813401149135 -86.7258389803482 -1.4209873402679554
-90.76396419357609 -86.74587941866073 -1.4152123788430695
-89.85039439129582 -87.20599332319068 -1.4127146764607736
-87.15347568648235 -86.92846353322805 -1.4071339060803265
-101.11227590915689 -86.64843137275625 -1.4566941797729656
-99.81730695246152 -86.4813224924041 -1.4555064819018901
-98.41129815641418 -86.6867650070204 -1.451989990047529
-97.2124956908064 -86.70733352832644 -1.4452977082297815
-134.72178991598747 -83.83319408348702 -1.5349298900678576
-133.97341656103606 -84.2668034203843 -1.5335205475847233
-132.95466120927875 -84.65169960936416 -1.531161435007855
-65.2622609283898 -86.25077295355304 -1.3250808761650725
-63.93123630276047 -85.79186211384962 -1.3197017217469762
-134.61481834695283 -83.62244929411352 -1.5351847742878824
-133.60469199902073 -84.06547402799134 -1.53363679438727
-132.20443567315164 -84.3593134048952 -1.5305901215665003
-130.28845986569777 -84.27823738931252 -1.5252656952249375
-128.85229870217026 -84.31688207664862 -1.521396364692395
-127.21459690964872 -84.25427175120151 -1.5166397400147327
-125.62593474814507 -84.43848022653371 -1.5125245102094522
-124.07965815354584 -84.46998943835456 -1.5081467294669868
-122.40028207978894 -84.42722136428893 -1.5031691367407232
-120.89208525285983 -84.55412204670017 -1.4990763870916897
-119.42927400208771 -84.52821493840727 -1.4946681661123853
-117.53912419624027 -84.50008648051691 -1.4889258888375614
-116.01035504617327 -84.66008016734921 -1.4847871109971778
-114.5325673582546 -84.45435281073537 -1.4798852909441422
-112.93855614362286 -84.71807084059228 -1.4758063168902662
-111.13328852315915 -84.60318780872365 -1.4713613866603235
-109.5873603585324 -84.77575043887873 -1.4673328604284561
-108.41236022925696 -84.51910118167585 -1.46393621642909
-89.91955830347156 -85.15475495170517 -1.4081260878556634
-88.94550530421543 -85.31841265376133 -1.4046726953352235
-87.48309453361506 -85.33087137477051 -1.3996319828840467
-85.74564985632972 -85.44961149899497 -1.393121403559395
-84.36489910637606 -85.37706705889198 -1.3884841390539748
-82.80577961597108 -85.40712855089859 -1.3834928643260211
-81.06904566532609 -85.46643350420082 -1.37799007068425
-79.32590206775002 -85.34316723227212 -1.3720558052055616
-77.89347789381115 -85.58596275076889 -1.3680496986456532
-76.24696682502177 -85.660452529131 -1.3628398344502426
-74.84968259504562 -85.69761762118156 -1.3583076005818238
-73.26097866748293 -85.82377358572182 -1.3533308105337178
-71.59852050979757 -85.8002174711165 -1.3477299150990303
-70.10354513199326 -85.85374602204666 -1.3428306511356487
-68.53356333032549 -85.70494230356717 -1.337129715188876
-66.97197342483362 -85.75491181557051 -1.3318473864064118
-65.27299482463141 -85.97094643668544 -1.3262800397024779
-64.1359152213196 -85.84219971855785 -1.3218468872676006
-111.1801007944629 -84.73289551315646 -1.47653393440636
-107.79179211613474 -84.95411610894436 -1.463628891817783
-106.40363899633128 -84.96311273246482 -1.4603905981769902
-104.81448553873226 -84.8397210099675 -1.456318754947151
-103.05581108128256 -84.92776023113358 -1.4522248628392544
-101.51608959562587 -84.81783880848772 -1.4488955202095817
-96.47038261302258 -84.99224554282158 -1.4339691566147619
-95.1130743296532 -85.09852007478817 -1.4280100535122
-93.54363115969537 -85.1143796390071 -1.4221817883062606
-92.04601333425612 -85.13884596489588 -1.4164018460730083
-90.71179102980749 -85.23838246364497 -1.411415922956996
-86.8139076959347 -85.35745997221771 -1.4020235547788293
-100.76747495722336 -85.06485723288984 -1.4507857256292567
-99.57902111108822 -84.86138745757003 -1.44936108972694
-98.0598134410592 -84.98273702063771 -1.4451743748438253
-97.07013315333259 -84.82153477258244 -1.4397677387097823
-136.0472332763119 -81.93048284447565 -1.5349084042857157
-135.2017697470757 -82.75211030924281 -1.5339245621081345
-134.12219894262662 -83.15883921616398 -1.5316539276573016
-63.09308992307379 -84.51970699685613 -1.3141537606110014
-62.10607407610017 -84.34943556514645 -1.3111284712541236
-134.853926901404 -82.45832166243862 -1.5335005683129166
-133.55288776725223 -82.615516754814 -1.5304299282414182
-131.83155742647554 -82.46293341581597 -1.5253739659864556
-130.12305884767733 -82.59367208171024 -1.5209463334768836
-128.67915532058626 -82.6643348142808 -1.5170167719457954
-126.8779768935706 -82.5570947351072 -1.51157651383582
-125.42303192090867 -82.74917056594404 -1.5078330847046413
-123.5635788671825 -82.79850860839147 -1.5025561667718437
-122.18053207619245 -82.83363805043359 -1.4985810609163914
-120.46294765038202 -82.75964460785855 -1.493239097683098
-118.93074252537045 -82.88734485317795 -1.4889676960794445
-117.34310628987103 -82.90563511209781 -1.484301954715235
-115.76603424892711 -82.97067064736778 -1.4797664491623013
-114.1806551506299 -82.93286840339697 -1.4748564214327615
-112.5536582691157 -83.10590323587078 -1.4703224326702131
-110.90385891970567 -82.95022973245032 -1.466588431776732
-109.33603188760326 -83.15726495816408 -1.4624941711926935
-107.87472018097927 -83.06027768556069 -1.4588030541407035
-89.95144867041542 -83.46211336231545 -1.4042714243038503
-88.66229130228069 -83.64904569974154 -1.3996551592034625
-86.85538122398603 -83.62679519638753 -1.3938451987627682
-85.52376778356175 -83.74657087650777 -1.3878428424392764
-84.10920934634825 -83.80221981029199 -1.3835415311681747
-82.41589191925914 -83.92103396780364 -1.3784913041463032
-80.81190208477267 -83.78732603176388 -1.3729856883109899
-79.23098189096815 -83.84791330027558 -1.3680040668384916
-77.74710166526836 -83.86760878577391 -1.3632491010775405
-76.07738377921805 -84.01545309739006 -1.3582625471095717
-74.52820619128764 -84.05085827795139 -1.3533251125327679
-72.8685437759599 -84.1390833301298 -1.3480545237997101
-71.22237094924171 -84.13175376664215 -1.3425898351100765
-69.86582568918271 -84.09983580761903 -1.3380011017040991
-68.01326002746157 -84.24577157299363 -1.3321397507080015
-66.63628690276755 -84.29344632618066 -1.3275522603053957
-65.08007852174862 -84.2323022011186 -1.3220666542095287
-63.57645556941125 -84.40693206357228 -1.3171884987085603
-62.203135034506474 -84.02075428451927 -1.311553370282229
-110.88428979459496 -82.94750034911708 -1.4716968437835027
-107.13755722633914 -83.35336914178569 -1.457871915831917
-105.98735993329366 -83.16422956699344 -1.4547131244056295
-104.41293555921058 -83.13901475228595 -1.4508482301381325
-102.80133663987743 -83.2156471104453 -1.446950492055646
-101.0514755442378 -83.25738305880857 -1.4435754150368187
-100.09337476768184 -82.59829461801714 -1.4420080624887461
-96.35747976902141 -83.3735153661674 -1.4296913307772225
-94.86377465191983 -83.46938435400607 -1.4230084565474037
-93.34905772914932 -83.57327374230698 -1.4177381029960396
-91.78794310247949 -83.40506307684122 -1.4113669367632458
-90.69700393557773 -83.60259425870703 -1.4075517919906149
-86.46665023023351 -83.51477418066415 -1.397315927381205
-100.3880735930599 -84.01659721351317 -1.4471917465758872
-99.30545791364845 -83.24026688639216 -1.4432414834994394
-97.81022109493627 -83.30818527564422 -1.4387891611866015
-96.97291256479406 -83.6920027767928 -1.4362426062950462
-137.38752872906474 -80.28806102998726 -1.5347232889618736
-136.44697462803566 -80.90805793817998 -1.5340201025762135
-135.46375201305267 -81.50790068701816 -1.5321301872576345
-61.15204146296 -82.8629194864271 -1.3055093381412246
-60.15949675725524 -82.622144857418 -1.3009582146909973
-135.72509413773471 -80.73155164574112 -1.5321228485138925
-134.64579675252705 -80.87183586190227 -1.5295037770995497
-133.049482378971 -80.95411957895746 -1.5252935016974676
-131.6052902529344 -80.93865883374247 -1.5212369414941287
-130.46846874103366 -81.08962209453168 -1.5183771699709927
-128.28014469986337 -81.2674669016284 -1.512510349417514
-126.62326130481581 -81.08552637619577 -1.5072660589497249
-125.02416216292325 -81.06555443236061 -1.5025504192059624
-123.55234002062019 -81.02890980162016 -1.4980959142012573
-121.95881556691725 -81.154246759821 -1.4936113184735489
-120.20827623938447 -81.19546589451457 -1.4884752874284142
-118.58260075825487 -81.18401112144456 -1.4835881455785165
-117.01117512840787 -81.36013542164805 -1.4792719338861902
-115.49306629008562 -81.22672373085058 -1.474217111143505
-113.82940607716594 -81.37600562861043 -1.4694922709045923
-112.26710190256411 -81.49404286460646 -1.4650165636742247
-110.74114170525839 -81.39005992287329 -1.4620452250194793
-108.99945146063027 -81.48355890208902 -1.4572849567118007
-107.36084025605999 -81.57196121475101 -1.4537320742744781
-106.36654674188144 -81.18397447601224 -1.4505126626427305
-90.56206902972758 -81.12380216005306 -1.4014615675137412
-89.84196202787619 -81.87086668487117 -1.4002079319727132
-88.2511965289086 -82.10599459847536 -1.3944364226113668
-86.80156438395596 -82.0515742124155 -1.389474822299655
-85.39574570858329 -82.07247219717048 -1.38369321927946
-83.718648139591 -82.1783190146627 -1.377861008730531
-82.06712327115572 -82.0508923832367 -1.3723052810552674
-80.596669919602 -82.25295046669491 -1.3682488122252225
-78.9136945560465 -82.24647483078871 -1.3629186475919464
-77.32208696755858 -82.20967262545979 -1.3577287629247268
-75.60285803628646 -82.3830137319353 -1.3526010688513836
-74.04979591398408 -82.44030344583331 -1.347768021520375
-72.56175989681458 -82.4119679617638 -1.34290036706197
-71.0987015421876 -82.38751011645834 -1.3380579358755322
-69.47127377443599 -82.84299114154146 -1.333770780472147
-67.45610069400678 -82.56154867540747 -1.326418615565115
-66.45878686106522 -82.69899844246085 -1.323403983207513
-64.64624308514422 -82.68028124655783 -1.3172227766322064
-63.18608063514473 -82.67027733226936 -1.3121881620557039
-61.885263810578785 -82.70587181415276 -1.3077718963035183
-110.56137012899651 -81.3455271580427 -1.467986933995798
-105.64904749118413 -81.57071517689096 -1.4498650416879157
-104.22821552315679 -81.58165807646571 -1.4468268117437542
-102.45956429313088 -81.61902061750936 -1.4417521990433924
-100.523664026857 -81.53968885609562 -1.4379321571281514
-99.34595045641768 -81.42743313674114 -1.4372221167704926
-97.31132598642697 -81.38928694745431 -1.4311861065260334
-96.18123639592376 -81.67941141937311 -1.424655278752839
-94.587754314042 -81.82423316645674 -1.4178454873018749
-92.9152958544967 -81.7047542353108 -1.412244780685112
-91.4729044873242 -81.85566855308646 -1.406789814955144
-90.67707818326762 -82.18973928235434 -1.4042767001790661
-86.2451529329517 -82.06200976613869 -1.3947065648467907
-85.71183617620463 -81.58334558457292 -1.3900349301921615
-110.34410306888407 -80.82836011614827 -1.4712044047582433
-100.0888924916138 -81.55715061549796 -1.4424318464366181
-99.22784855091082 -81.74580754455036 -1.4401523725576477
-97.78654409010414 -82.0439412904897 -1.434850064508569
-85.80690105940512 -81.64741931207787 -1.397076569343382
-138.46514562735499 -78.43734763819216 -1.5335373968290384
-137.58676234331682 -79.10189938480715 -1.5332804067863757
-136.24460971957512 -79.03432664606686 -1.5297488939130117
-60.734021093795526 -80.99998009285453 -1.3001948718531262
-59.69654153157589 -81.16910437461098 -1.2968573704135598
-58.38267885193159 -80.99946570850213 -1.2914574003317214
-135.61886426510387 -79.34098785919603 -1.5287149201806314
-134.2600290955851 -79.22336012668282 -1.5246723076925632
-132.69609268678337 -79.1804241227862 -1.5202040597438575
-131.13130021870865 -79.17287372639672 -1.5157092096245388
-129.88500603176175 -78.8398244741911 -1.511295185978938
-127.59006453494382 -79.87807437686422 -1.5071378073543493
-126.23895890515284 -79.31257000847035 -1.5017580026561514
-124.70576941488963 -79.38415313670173 -1.4973366085718895
-123.31566875352036 -79.43437613106062 -1.4932675497009529
-121.50245382560507 -79.48034426934993 -1.487940214732909
-119.84770568224734 -79.41493278227085 -1.4826969183126766
-118.3525071950834 -79.53120872307238 -1.4783799919013267
-116.84175989015293 -79.5393162717715 -1.4737239012375811
-115.13614927665752 -79.60761936759405 -1.4686637045017563
-113.59719936713448 -79.74034996993353 -1.464311823428693
-112.120026126988 -79.71184310528324 -1.4594844791871484
-110.3696620980539 -79.72336816951938 -1.4572791942473533
-108.786639241258 -79.84496334582252 -1.4525676483771028
-107.1956538924663 -79.84518234040654 -1.4489361667239375
-106.01820918969533 -79.78738468017076 -1.4461222694208686
-90.4606023553996 -80.4340668704155 -1.3994269348963473
-89.59397164942419 -80.18838711000652 -1.3954953398319077
-88.03570060214838 -80.34078111169396 -1.3895770373963212
-86.6251696992044 -80.36520450247173 -1.3849065572469872
-85.18273676326781 -80.5064122764768 -1.378998476862078
-83.41594621484826 -80.42040919083334 -1.3720001631883072
-81.8758709666483 -80.56878864997631 -1.3676606037897039
-80.1496364591862 -80.62682252653768 -1.3623619554699307
-78.63806644894892 -80.66354779929466 -1.3577092776897068
-77.11964730598284 -80.65766650079661 -1.35293953804136
-75.4298397414709 -80.68505640302304 -1.3477143996832703
-73.94930321585163 -80.63029920283009 -1.3428441560890754
-72.3229536124246 -80.85815396035379 -1.3382058029609256
-70.8753452392335 -80.8841356329875 -1.333634263710047
-69.36902208777508 -80.76301107318785 -1.3284712990682976
-67.19938805050955 -80.54618658418308 -1.320834125691293
-65.80882123087369 -80.87907024912835 -1.3170351219162126
-64.41948936470462 -80.99435911292582 -1.3126907037947193
-62.80045569974071 -81.1067944508692 -1.3074678925854517
-61.59251140771997 -80.98312230997936 -1.3030682581865176
-110.21888539508916 -79.71653484475914 -1.4634567619323677
-105.17371746681361 -79.85593735352451 -1.4451972958387609
-103.58047982896447 -79.93105484167972 -1.442009643929375
-102.27263447957174 -79.9959270276436 -1.4372410180223643
-100.26213069720741 -79.99584761287844 -1.4329937530322117
-99.00752810164452 -79.87755682006944 -1.4315501021474353
-97.16606140765904 -80.08658031893071 -1.426851957064545
-95.91031771667605 -80.11850862202068 -1.4193149807757732
-94.3435558245384 -80.04213810764409 -1.41250532486578
-92.71618703401262 -80.1106260235733 -1.4087547311912307
-91.26015632016438 -80.31968930757415 -1.4034599126221272
-86.1747141920463 -80.3604652960515 -1.3909278318239735
-85.37831408468057 -80.33379197988182 -1.3875753484018911
-110.06115864552022 -79.5181043908967 -1.468877819823265
-99.74187844285241 -80.41973555204396 -1.4381169357346033
-99.20103318639097 -80.25968479718905 -1.4360414582832346
-85.48682237481066 -80.28558599954627 -1.3945408831871449
-85.13349246215377 -79.98125164957435 -1.3921496707587007
-138.65686612232844 -77.36567902575993 -1.5318712054087953
-137.22495093779543 -77.39805838267407 -1.5287291535264114
-135.77249183129197 -77.38411234786216 -1.5246741251058435
-78.59873054515197 -78.25909181161998 -1.3495236786564908
-60.61497364319105 -79.35044580656879 -1.296154417046993
-59.37467722221205 -79.35907136718558 -1.291999983436771
-57.7801090554629 -79.42662258118082 -1.2863397129843612
-56.91413003722303 -78.76682434128138 -1.2806626848715579
-135.08532697292222 -77.62444430425785 -1.5232814461937974
-133.86933183663797 -77.50652652951939 -1.5195882503270464
-132.5243039846095 -77.61184461984202 -1.515990815447625
-130.71123709276165 -77.67350203764643 -1.5108438629306171
-129.18953544920973 -77.61162850917576 -1.5062236785000804
-127.69243864988981 -77.77133375191775 -1.5021771164112732
-125.97285918456231 -77.72302206531171 -1.4968647198506972
-124.399644641454 -77.88498984605259 -1.4925156884243698
-122.8997837958726 -77.84761712695753 -1.48781628193519
-121.31598935510553 -77.88800834269867 -1.48301789480331
-119.69488075970455 -78.03565854875302 -1.4783926119414745
-118.07056728122457 -77.9525713481734 -1.4731491339235296
-116.45796954465756 -77.86081840518581 -1.4678007138526377
-114.94663895750008 -78.32046781642569 -1.4642767572593713
-113.48965800916514 -78.61762507632587 -1.4605249070936666
-112.60842179463344 -78.89697043923589 -1.4584936128009862
-110.10615958295764 -78.19023223085664 -1.452683465978265
-108.4635546422618 -78.2081084988148 -1.4476793560607484
-106.61658027816834 -78.21383689785917 -1.4433422496549928
-105.72995900735324 -78.29539750700718 -1.441773029031318
-90.03906674882349 -78.52640859222343 -1.394012113028358
-89.30256447442355 -78.53079102309115 -1.390467754904886
-87.79154931601931 -78.63269950241977 -1.3847651371918492
-86.42222599544621 -78.85097714611581 -1.3807977193637255
-85.35119339912632 -78.86983794715482 -1.3779403354635495
-82.81388634486103 -79.55281606477182 -1.3673264555167535
-81.36584383977136 -79.2673165991454 -1.3622110608912263
-79.90524812928929 -78.95376631843571 -1.3568435538766328
-78.31378052378427 -78.9207500184819 -1.3518496577798782
-76.78927971655114 -78.88983115597793 -1.3470189290780725
-75.28338799274238 -79.04856340326066 -1.3427243362069607
-73.60431011121818 -79.19524965528903 -1.3378822720491341
-71.99775945368147 -79.13518277409247 -1.332676643033967
-70.41408113671277 -79.23075559748986 -1.3279267423693266
-68.85700838784251 -79.21185233468181 -1.3228969591828277
-67.02107343541957 -79.07443459738748 -1.3166561977912496
-65.67579073449299 -79.32183401456234 -1.3128877050634533
-64.1708852282919 -79.4125305501175 -1.308174214190561
-62.47774841173893 -79.40735837943946 -1.3025705853922858
-61.46523786789805 -79.59972328511714 -1.2995874162468048
-109.98689016730677 -78.08643968025294 -1.4588574828201424
-104.81166744487886 -78.14350325584093 -1.4408336242608202
-103.39192705464677 -78.28713192620239 -1.438205158371425
-101.93125208855199 -78.36676874007244 -1.432502937886579
-100.25301688824791 -78.34581840737353 -1.4270246841558767
-98.78669085577948 -78.35811892812565 -1.426012604354094
-96.97064528622329 -78.42296341628173 -1.4212376453335993
-95.52945557304226 -78.43001703420165 -1.4131534261846777
-93.93045371148773 -78.47202670979325 -1.4075816022217809
-92.37939984483383 -78.59586463998261 -1.4047742153295009
-90.81621585068248 -78.51492527663139 -1.398538976926287
-85.95453960922686 -78.81623298079182 -1.3862541090334584
-84.99241603512098 -78.7122277268248 -1.3835647261010928
-109.81453026691705 -77.96507890261735 -1.4659563929677908
-85.1784353817394 -78.69615879683903 -1.392148700225729
-84.67549289160728 -78.36120679364299 -1.3892040068646092
-138.45374109730096 -75.82696322800001 -1.5282270368613549
-136.98859290900054 -75.81175314811087 -1.5244724978184758
-135.3736901889993 -75.9823192196711 -1.5202392612729698
-133.95703304061817 -75.38653713222634 -1.5147660169904742
-120.52960319661433 -75.61373960682837 -1.4731896941274114
-119.35580653955782 -76.09326365929343 -1.4708428202195694
