# .PCD v0.7 - Point Cloud Data file format
VERSION 0.7
FIELDS x y z
SIZE 4 4 4
TYPE F F F
COUNT 1 1 1
WIDTH 849
HEIGHT 1
VIEWPOINT 0 0 0 1 0 0 0
POINTS 849
DATA ascii
119.15774454567452 115.34015725725702 1.4986328684575878
119.91326406787091 115.27706447800482 1.50703861414182
120.75915816464294 115.22524053384811 1.5153518140067777
121.66725844903077 115.15313072901057 1.5248084279188092
122.43160690908942 115.07598874415295 1.5334421529627429
123.29696952494851 115.06315443775442 1.5416346191076573
124.08120317394796 114.39274429633896 1.5490365720453438
124.89059694031063 114.35236451187153 1.5580296650148082
125.70873436189682 114.05064416945049 1.5658627544849768
126.35613634691293 113.82799560936482 1.5715436846783677
134.6582313752864 113.2831918911926 1.6582632924149947
135.36815104621442 113.39328634309787 1.6630321384008773
136.2237007262452 113.61222879216744 1.6728983631891048
137.023253806079 113.6326473617164 1.6809464049489353
137.8413362588817 113.91773039166222 1.690381160403043
138.9817072003989 114.1159536250665 1.700855491061469
139.73648854997919 114.04210720081817 1.7095395923239076
140.67293311466216 113.99858721713193 1.719195711044006
141.50203459499326 113.95722911662608 1.7276103458983898
142.3659970342944 113.91668691838287 1.7359793373899257
143.3023836138306 113.86946408213808 1.7453546339112926
144.187120329821 113.85206889032912 1.753495632955433
144.94557442754305 113.81369408173248 1.7629566776155605
145.75207808602943 113.79253094043678 1.7710639773247543
146.70352083217983 113.7880792219254 1.7792615257466478
148.11118239620365 113.80290556901629 1.7910600075741845
148.66799858427453 113.7942441791737 1.7995200686914194
149.3860710835258 113.80241319061622 1.8075899540192633
150.24556875511382 113.83370948365926 1.8170289627564855
151.04003580346628 113.86905720505548 1.8236908992263048
123.76491649735819 113.11146761611393 1.5451796591769553
126.68883849475715 113.50351780542444 1.575239896087971
127.43653178877422 113.14577793272426 1.5830337071306355
128.1796818050898 113.26585193184674 1.5909523978631526
129.19290880783893 112.81892467441645 1.6006099315638518
129.8213651130863 112.26068071758787 1.6053722192163666
130.67526584443237 112.09119756613504 1.6155232423683208
131.58720826256533 112.76111007203876 1.6250945058150572
132.63536003320735 113.05254147375993 1.6348060814228578
133.43411122419587 112.77858915648666 1.6430847544957408
134.17982585393446 112.96520180016384 1.6523741797579237
136.8276648922273 112.19423217773476 1.6782019789877451
137.34663498317624 112.32643173209246 1.6831049603195825
123.61048785567294 111.89291539745804 1.541199684475797
128.82526998653137 111.68313545831506 1.6002415579839562
129.2492172000426 111.67663569819959 1.6029286532947808
136.9094506944567 111.03992889875573 1.6776878559955775
137.36749960804696 111.15287518938237 1.6794638655835896
110.31280826014284 116.87879864175918 1.39441872194467
111.02244147381163 116.59611573161618 1.4014936978170698
111.82282321724992 116.45668600852203 1.4091137234598272
143.4355072275874 114.52369474375054 1.7249891709478669
152.79223003620783 113.9171983953929 1.8260204435449678
153.50577737940733 113.93905530068378 1.8330851956978753
154.40928172661708 114.05128499598062 1.8425912581194452
155.4698928189095 114.32792315665765 1.847119438943319
112.02364968969933 116.39035713002978 1.413222274141976
112.77464223623441 116.28760564090555 1.4194357093881822
113.43641278404523 116.17634557920509 1.4267991916320353
114.39403174705417 116.05076924672608 1.4366501279374386
115.28315358966049 115.95673969653853 1.4447273079805516
115.99725491966389 115.85829896278707 1.453103117147982
116.9948176829753 115.7783477494234 1.4623710927047933
117.7545851218647 115.6910582969277 1.471219920804791
118.62588553048056 115.63587118356074 1.4793666795111111
119.48880107818462 115.57863343121718 1.4881363902248286
120.29183664856217 115.50842964298941 1.4972875223611517
121.26999190547983 115.46087659627138 1.5060678546776256
122.25527050692824 115.4372598927795 1.5148522752367841
122.76577177873965 115.35169090016942 1.52396835059637
123.3657101221608 115.2778145456269 1.532489733239711
123.65525609630865 115.22802788255771 1.5378287483351272
125.3654093909177 114.48489679463421 1.5477197610059288
126.2762236358101 114.42104851698858 1.5567496022887821
127.23016904425566 114.09625848981749 1.5659474788655154
127.61029717722712 113.87411885722331 1.5702815293970183
136.27275993390182 113.28093441343816 1.6567229672858856
136.7626379017463 113.5000991355362 1.661671295539571
137.6171068815635 113.68681462270102 1.6710508975396299
138.24388138927412 113.67715437943242 1.6791536747112055
138.80877356782977 113.56074561196597 1.68478244752519
140.00478328861342 114.28133239164828 1.7030691038327344
141.02849505473785 114.2374801808592 1.7104590109285067
142.08885390053365 114.22266749113447 1.7179683813169213
143.00990697764163 114.16823975459572 1.7266414081959582
143.8946507778779 114.12539186142578 1.734984936631317
144.62775660915005 114.0685751780383 1.7435605182834435
145.4663285053384 114.00317038380871 1.7530528764282194
146.4219236753987 113.96886348979866 1.7618289770042488
147.24926410644662 113.92484276096333 1.770759225582646
148.15127532725893 113.90460190609096 1.779393033930983
149.30171429390273 113.89337028946152 1.7893839841834915
149.89014577804028 113.87250372276247 1.7973702347251606
150.68859851475054 113.86892474072131 1.8059960543253564
151.66854545250058 113.87891247988098 1.8155328932490309
152.11674269537238 113.89385903846603 1.8216684406525598
125.09475686549354 113.18463709941093 1.5434181579152828
128.10168876820916 113.41649008879737 1.5734542451246856
128.70975337451677 113.08824687213175 1.5805215000026898
129.5584641896279 113.29740151350919 1.5896549294835132
130.53448717839214 113.28629116458156 1.5989985791845482
131.13893716522378 112.56565165913068 1.6046227350785327
132.0730980053544 112.36821008233113 1.6142338682401876
133.1026635449974 113.01658580832006 1.6247171524910295
134.01751212135449 113.09869891040871 1.6340856672325021
134.6974255784564 112.7143459446998 1.6416447090963648
135.71188921647465 112.89607571236785 1.6509253015483543
138.1069286523902 112.32399380557001 1.6767567589515502
138.69325127638078 112.19373280216584 1.6814718702275924
124.79796275489403 111.66668152478678 1.5385820243527137
138.1092896483167 110.65873198495397 1.674775477461608
138.67529243606384 110.77147492086543 1.6773285674425997
111.51961149736462 116.82418055211515 1.392214115875139
112.30716684576704 116.61868974175674 1.3996610300504986
113.07043027539073 116.48655933236873 1.4085974782445436
114.28736074395769 116.40481274788911 1.4150380468865726
121.72582616124998 116.04432649153321 1.4896089085007422
122.02618868761047 115.9529337044157 1.4968482691678981
122.25805589401367 115.93353674342099 1.502332412166601
144.3247215745003 114.49654958102981 1.7306146613358138
145.17895509019752 114.49334381436591 1.736051024360883
146.36179083805396 114.54947953449613 1.7436639155876423
147.2356193825045 114.49661645586667 1.749149135096559
152.86791589642837 114.02592868568063 1.8050277040319787
153.42713531807794 113.98433991409226 1.8137892093679133
153.951196303419 113.96337525074262 1.822486041079684
154.84436967479158 113.98224695166465 1.8322973487872014
155.6858509759278 114.0345859480501 1.8408153744091862
156.2956595895031 114.23078305918236 1.8462519113822502
112.95568135669932 116.40089192167028 1.4131954794940331
113.82384791041781 116.34209196032953 1.4177274278516987
114.94114528990426 116.24510164367332 1.4267633588357396
115.67126720121864 116.15217492466586 1.4348869555160662
116.62681149898737 116.08815437416628 1.4430712908684624
117.37918695817247 115.99932049731407 1.4519790167028923
118.401415284438 115.95044910943047 1.4609421900353259
119.24605074579193 115.88705019109919 1.4700957301783057
120.09825887280107 115.84489565927285 1.4781363982392484
120.90718010942818 115.78894776326074 1.4865133345938375
121.63904870656596 115.68950346084371 1.49705306720328
122.15618857076863 115.61033198818085 1.504719798594258
123.24367550470348 115.5402591452404 1.5158315346675701
126.68556662354219 114.46771627756519 1.5457202096231655
127.77827030372717 114.49810254637379 1.5557954406836199
128.55737503873456 114.22822189533518 1.5638633259581607
128.862904925593 113.85220141149416 1.568162872299678
132.21448914142013 113.63428327187043 1.5941648279560188
135.58796593634668 113.42055518914736 1.6292039367098894
138.1380650720693 113.55006576781372 1.6605611330809145
138.94961286442143 113.77620096576835 1.6701941508970726
139.68218902441012 113.60102877805538 1.6768594939952057
140.21535946066447 113.67746975716773 1.6835406906435781
142.83115389880692 114.38631191095334 1.7159084778039866
144.0644780652014 114.30463144729715 1.7290300931761413
144.7576877332005 114.26404284077852 1.734048254988978
145.86744283711602 114.23451258071475 1.743064839117608
146.98518947922275 114.21797828661954 1.7520250198490888
147.80248453604955 114.16975851509102 1.760398120764174
148.5961431840643 114.10287858185877 1.7695832006298493
149.65140015327427 114.07061986016379 1.7787618712133089
150.46519998090164 114.03216548051856 1.7871318795655606
151.32326815813218 113.99347305769462 1.7964711710532588
152.03466267554683 113.96362704281177 1.8045182902454147
152.6013717907347 113.93405922158033 1.8134994208593618
126.44212617050026 113.15736203109408 1.5419446887443395
129.3357732979629 113.43452216473976 1.5711389205033626
130.0189277053335 113.05160056749563 1.5782898054214616
130.9048877833122 113.27262177206642 1.5877679244663645
131.75378044713298 113.4719695892239 1.5975719594217108
132.59930535581816 112.87324249645702 1.604830840469654
133.55160037519983 112.65097900175637 1.6135320296441238
134.556704374876 113.24480306675518 1.6240757077092685
135.40811398973727 113.07377672673083 1.6332192537879267
136.15811491690422 112.66595977517647 1.640291920287158
137.1346797217057 112.88196548231598 1.6500094476168248
137.86825911705475 113.20248967363081 1.6550974832622964
139.62274656036712 112.36656955041023 1.6751234132292108
140.04057515128613 112.18819731614362 1.680118040027318
126.13115698225528 111.46013334113884 1.5365152954469927
139.44752687679346 110.51409094671881 1.6723980785479151
139.72174785307453 110.48798165559496 1.6756556192641188
126.02642823308717 110.55416143255195 1.5327817072500372
139.81856684772964 109.60259365315665 1.6709852312587534
139.89368322670055 109.63128800931327 1.6725385551970784
112.82170512652054 116.86184318019083 1.3901665344860397
113.57054678122743 116.67939875876829 1.3983147256159099
114.49660671744722 116.55293263023614 1.4071601467648787
115.38780472102454 116.46064959963579 1.4155797014734053
116.35271163714754 116.3846017647907 1.4245268238565052
117.43020365848878 116.5104794528034 1.4340944032575293
118.20530563245416 116.38271156557525 1.4413210623734316
119.14722985431496 116.23011545610359 1.451040435029986
120.09915723916816 116.20671585380406 1.460202853668465
120.70108625517511 116.15398876482875 1.4683939972739872
121.2554890021388 116.11660716589783 1.4783587115293857
121.54049634128799 116.12957531325792 1.4850833811991433
147.99703432876953 114.42592400134531 1.7538837627440897
149.23005262673544 114.40061389263387 1.7616152762501185
149.99755993486912 114.37519416996699 1.7677959287388958
150.95843415644055 114.26602749949724 1.777451420433733
151.82655269258188 114.21466208480683 1.7860290431455368
152.59754090957438 114.34997238627889 1.7944480716335343
153.61410972897417 114.10810710153343 1.8043966365511988
154.3307746659429 114.07020670714395 1.812148305302712
155.36603442980515 114.05411655833835 1.8215884664018933
156.20626369172925 114.05750580777415 1.8302798003556013
157.10341143011772 114.08920155433327 1.8390736267370087
157.9260560266162 114.23574296505453 1.845439180726332
115.74107230928246 116.31153675695732 1.4256313642047254
116.63027906096929 116.25616417629227 1.4336033440108666
117.54492829889533 116.19076468425583 1.4423590499947045
118.43320182637939 116.13653696764361 1.4511398307514578
119.29746818376364 116.07396143015262 1.4604660114324624
120.28170997272431 116.0299930215851 1.4695754676023982
120.91901814913757 115.98369318347356 1.4762462473418705
121.42643234311976 115.92281385064678 1.4832537458783206
128.17870348988336 114.47067088839965 1.5446289475000794
129.1538701926342 114.58355903690571 1.5547314019647975
129.85757430046817 114.27096842734132 1.5623442528204348
130.46793844580714 113.82398024944175 1.5655865569782672
133.39408455038648 113.67090581391767 1.5957463513544428
136.3700364442368 113.5106891282428 1.624205737797177
136.29966823252335 113.47284133795014 1.6280737738583977
139.4987868874207 113.6410534126762 1.6605824130979978
140.3850103055425 113.8759106495706 1.6694074202035836
141.06723929209355 113.69663858029145 1.6753217647775236
141.67548050416968 113.75230023498466 1.6821837603193344
148.02903658192093 114.2978077150536 1.7547941592732608
148.74837773717758 114.27304898414421 1.7614181946041367
149.34344680906918 114.23670415055673 1.7675721636011112
150.37887538637128 114.17166996835135 1.7782564639936287
150.98572441515316 114.12676404664442 1.7849389966426625
151.80596410308797 114.07985629265588 1.7935709570472844
127.91788117200693 113.11692046915601 1.5405881687819003
130.62592666762748 113.41037572464653 1.5691936198566256
131.3538852532503 113.02303627511915 1.5765315334766044
132.43012680595072 113.26252142797392 1.5862736681602643
133.10097674878315 113.57191005066632 1.5964705488212072
134.05485677363419 113.10758452637029 1.603142530272133
134.90678766217653 112.90889963225489 1.6122627355187829
135.5595249413401 113.32487518276581 1.619977539208647
136.8151080748436 113.07901292633885 1.6314695805711552
137.3823574323824 112.65280095947534 1.6381118521317042
138.39530288443103 112.81935220171843 1.6481491963402775
139.22704969390603 113.18660773175907 1.6540953621688739
140.96939069295388 112.46296226419713 1.6738294114958532
141.61345224706344 112.39337817379294 1.6789426283263795
127.43961546291176 111.55292815485613 1.5352897526592841
140.8736054853908 110.6835898912004 1.670778322501255
141.14662405265418 110.5459197656344 1.6746471549215847
127.27621220871107 110.19659654008815 1.5305021194407833
140.9041346292689 109.42913633390411 1.6688594856036494
141.1530247221244 109.17303797145473 1.6703840688766343
113.74826338402583 117.09655184044996 1.384472159284669
114.12544427046869 116.95414763310592 1.3873136302488256
114.93948968077488 116.75724086196087 1.396936763682627
115.90349697332275 116.65578628941162 1.4059735729397698
116.75064531279273 116.59488757237806 1.414262636468378
117.68287740172755 116.54951190179764 1.423363046759624
118.71648141782377 116.76350650373729 1.433844993233961
119.30132876660002 116.57269178219538 1.4410887987683705
119.90858663895901 116.37694412315389 1.4500235180731154
120.34424914946742 116.34628693679025 1.457308195540894
121.62245860823582 116.26347107862028 1.4659049412294467
150.65782121917042 114.4779778292043 1.7623407983329644
150.4682101124915 114.55940842476255 1.7639045587902287
151.95636751379348 114.43245748537348 1.778992322978343
152.82994316293696 114.402008513926 1.7861139100463
153.93000338083147 114.64078943523369 1.7939602423823293
154.99528181965184 114.33816091279073 1.8019833498509459
155.7780906408039 114.21961146218749 1.8121776031334833
156.65864121469556 114.17664633466637 1.820404530900317
157.60262679250076 114.15553611487532 1.828941466476595
158.44919220343996 114.15273044992661 1.8379076876421803
159.08796294249373 114.2870983151798 1.844563736269305
129.60578576067368 114.47633949575958 1.5437009242401905
130.52694393739498 114.68113018427047 1.553541768247892
131.27597887138194 114.28329628444904 1.5609900662541842
134.75953678426836 113.6697827799786 1.5895520290086795
134.6737248069483 113.77957150148535 1.594808580186505
135.603429418413 113.66223949890002 1.599709703965455
137.3316815862335 113.60765581496946 1.622500378474275
137.89666503244632 113.50448245773867 1.6271909130284195
140.85591278151745 113.60674034783965 1.6581560788276264
141.80950298556218 113.98067386956988 1.6673571258570627
142.48385223673236 113.78656281977297 1.6740977310375822
143.10626457759636 113.72860197580079 1.6805732838664806
129.18093822738413 113.07354799475289 1.5387863912927997
132.23070357606085 113.78156084097512 1.5629955960130593
131.8906828517072 113.38664236614089 1.5675062779758249
132.81913105983142 113.01964514438728 1.5752042167352422
133.7321262293802 113.29732337114226 1.5849801225115936
135.4782004372655 113.30122059939046 1.6029796986386304
136.3713777350433 113.19539746113159 1.6112463406976527
136.69810901377767 113.44695962309055 1.6178850248861187
138.15662548954938 113.12025225273987 1.630112982703866
138.90543992348077 112.64699218892318 1.6375036400885288
139.83771484814224 112.78969600818729 1.6464510533905357
140.3940181032842 113.17117940485618 1.653233006657674
142.40170655827285 112.35423995716828 1.6721430334800353
142.82014415635675 112.30176968644194 1.6774352414963425
128.8129550601985 111.4570082203959 1.5331539973620603
142.26788652622156 110.71560823681172 1.6692412737376812
142.64046570465413 110.48874649512923 1.6730680535294957
128.62944581845977 109.49216985765332 1.5248050806279387
128.52453700461953 109.88320875393822 1.5283562564778095
142.09154348119145 109.08821687650362 1.6664776004619135
142.24231264993293 109.04405519497065 1.669466587133426
128.64840200427386 108.97962696245163 1.5231359474328545
128.46785068665383 108.68155005561523 1.5236222317919306
142.3093362361566 108.0371548615448 1.6642476998392786
142.20648377545126 107.88282191341537 1.6656965256541776
114.75683264509922 117.17877864288796 1.3836872104273579
115.63759720582975 117.00871199773114 1.3868196396397443
116.6151914620949 116.87989948205882 1.396128669856863
117.28613311973956 116.81815447610175 1.4044863176367182
118.04589613540116 116.79054427796355 1.4131742192293948
118.72181462619353 116.75625539019218 1.421971583880105
119.32050033257576 116.69661218887765 1.4310781938267036
120.08161738364294 116.62236271009198 1.4364916751374093
139.7651145287862 116.2590640406281 1.626412287834331
154.57853131857254 114.52081470586427 1.7906052475135485
156.0313379124264 114.47642618518638 1.8045654624093377
156.96795550485575 114.46321661655588 1.8115300555397198
158.14270108513006 114.39513301217848 1.8198700353666108
158.94864204283533 114.30854955506763 1.827491138960935
159.72960923835848 114.24244546609003 1.836834405908117
160.22369938601133 114.32932341207675 1.8426458242820538
130.99453377711302 114.59147890173054 1.542439406049926
131.92354662896005 114.80464807383379 1.552077574598957
132.605641987454 114.31447317278352 1.5593573061127566
135.6859660274165 113.72668556609518 1.5883443260699943
136.01210086764996 113.9393602157076 1.5933623006015718
136.90652784870946 113.6919726906376 1.600480955478682
138.42631818028 113.58972980917073 1.6137774521562287
138.69421343443588 113.77708457958893 1.620779329670284
139.2572917759079 113.7002481479394 1.6260266364124043
142.33012821778544 113.58303785837795 1.657007391467754
143.18260833751975 114.10454334710803 1.666325768134026
143.84334391495358 113.79510677381529 1.672919709464982
144.43055621916656 113.80263167658562 1.6792698298385162
130.62679111763703 113.07401348862311 1.5372871174025522
132.89375535934454 113.78893035774958 1.5618547369964237
133.36215068755246 113.36720995199764 1.5658155116627015
134.28789065510992 113.04005454844605 1.5742912527940145
135.11112571796497 113.37667828692324 1.583680309534821
137.12352066550042 113.46907796565766 1.6040778694364408
137.577427871868 113.41016625449541 1.610243116199462
139.6489310411443 113.15949149789972 1.6290617011499628
140.33967501512552 112.67478813946448 1.6361534612656468
141.13996536029234 112.77569734261216 1.6447882745521665
141.81496267596114 113.1125149125818 1.6514830900644077
143.71197998960866 112.3630233726175 1.6708673684563955
144.34995926323703 112.2770755452437 1.67570364162394
130.2259415286283 111.52583983259628 1.5315869567356573
143.49092138888204 110.70636152518334 1.6679252879956528
143.93307872709977 110.53307881399171 1.6719083129025005
129.6230326169544 109.6909031879932 1.5240530510074246
129.8531230990635 109.84876982344157 1.527701270433268
143.3522257277458 109.00402868278711 1.6646556489741235
143.77235181729026 108.85096557304297 1.6678405002503423
129.40343048619172 108.45515132065671 1.5204068405832896
129.4683610585845 108.25197375974975 1.5222906898956565
143.28492400155724 107.84298625535112 1.6623886339398188
143.38106549861118 107.26074781210943 1.6628185404042868
129.62265408939703 107.074018393016 1.516130051278982
129.63570169513793 107.14497947652613 1.5174915067964536
143.58838132277987 106.32053983918013 1.6602106430751782
116.97235293506428 117.10663171109292 1.3855595405254628
117.90072690351539 117.02078255506125 1.3950648264848553
118.67722454058881 117.00836673231292 1.4033959504133944
119.21231954009355 117.09747054034582 1.4084997340831444
140.58097809666393 116.26995916627158 1.625480642211669
159.53556813915614 114.54579863138872 1.8194557733965624
160.39083701285338 114.45932046504815 1.826712207197935
161.23372561646894 114.3541113422684 1.835697215002257
161.67467468412897 114.45201224991516 1.841407279852397
132.32143351647426 114.61106207162175 1.540438395509751
133.1426850739936 114.90962414089921 1.550233690555787
134.01304023540916 114.30427535268069 1.5575806222903925
136.94637565339752 113.78323376921387 1.586237699459434
137.3913295820177 114.10068344523893 1.5926675362362155
138.20888553489883 113.82823981025412 1.6006167159217461
139.11513743552408 113.6671566761039 1.609736376679209
139.8720613026511 113.91416789166902 1.6191927188673054
140.79835856706438 113.75941017437889 1.6253574266414734
143.74318182811606 113.66176827060521 1.6567265134994533
144.43885282001438 114.18287881097855 1.6647463306536077
145.30608023055595 113.7849028648371 1.6715648595071677
145.83581325256543 113.86569440671299 1.6778494681274596
131.94843500019775 113.14945874955268 1.5357307683834063
134.3596972659534 113.79436834092145 1.56016278050107
134.71328037187985 113.37892107764903 1.5643102936731987
135.53668242718626 113.08821640509252 1.5727413844338647
136.35106299342388 113.40531306419918 1.581395636098775
141.02836008203695 113.15092647551803 1.628775720790518
141.68465152664223 112.76078232705116 1.6342950346563412
142.51155603302138 112.81267280945956 1.6438620942214621
143.2898596214504 113.13280145697874 1.6499135860224596
145.11946163961633 112.39314642335938 1.6695223862122852
145.64876795012486 112.19457759801928 1.6740631541836883
131.58292903340785 110.72543120583748 1.5249792624931173
131.52556158366238 111.46411748278243 1.530268158173383
144.98813611632448 110.62722474528387 1.6661804839035748
145.34864454325776 110.6872549580369 1.6708019098727553
130.90175711489684 109.9536841921414 1.5231916140121404
131.37529809108386 109.90773367102825 1.5269574906358794
144.7777357719045 108.96903317563404 1.6628823855967736
145.07929273422425 108.95665233024997 1.666959486046095
130.58338442112216 108.18641683532579 1.5177775898667332
131.06459123961682 108.21580054763855 1.5209407254830376
144.74773243202185 107.87985859755454 1.6606332740662255
144.75355241230403 107.19507624103842 1.6612905086042442
130.35446686492247 106.76562927848394 1.5136269270156082
130.63060097697488 106.70488395206895 1.51541047621976
144.59301818700106 105.90080727791995 1.6581287053761204
130.70889957785994 105.72730932272697 1.5104498580520116
144.95558076358452 104.66355196107206 1.6542752709814954
118.2954942517023 117.18842246436978 1.3850880889818697
119.22633685279658 117.16932177098671 1.3934837535842806
120.01840147317014 117.17039275578446 1.4019402644699348
120.43440908493069 117.19192665697146 1.40744515653068
141.83100328858245 116.14783225212787 1.623565501080099
160.57051667375646 114.66489969140687 1.818433577763635
161.62546839043154 114.58671451348235 1.8265595916033435
162.59108453389527 114.50072173470936 1.8343054581539302
162.90046959905993 114.52200195612465 1.8398317002406173
133.783336344554 114.62897633068573 1.5388012409174252
134.5846623263196 114.9875103902982 1.5486777759012822
135.27031235482383 114.32646485803973 1.5562736106338766
138.20091686613986 113.91162024095554 1.585035041066131
138.88151022168913 114.16841759628227 1.5911084954862575
139.55352175464338 114.01026460353027 1.5994876792954418
140.63375857134662 113.8722242131978 1.6085263705431463
141.54946041473596 114.00594216680766 1.617993414386306
142.28426384356985 113.72006033226587 1.6252024382304402
145.04832727176114 113.61861792445472 1.6543582403930395
145.79150883442264 114.22253581992061 1.6629036771020456
146.49634328712085 113.8787351452471 1.670290686895797
147.09230207826732 113.8180323671154 1.67631506298779
133.34908958316873 113.15224956316179 1.5340784198152422
135.8514598853127 113.82711460906017 1.5588229423208106
136.13038914275828 113.42856843598179 1.5628322638004595
136.86634643952075 113.16427965392026 1.5707437641051234
137.63696493560292 113.46004408369937 1.579062663305729
142.58569317123954 113.25890517670953 1.628006407974277
142.9535120284689 112.85818922330907 1.6328765625158765
143.86065261272614 112.83121500040374 1.6416553788356445
144.382206456902 113.1618117364619 1.6484566403914067
146.5527241828116 112.32832645577675 1.6679571421061865
146.9858287107341 112.28183399808103 1.6727810538827041
132.25322262398763 110.71661470348387 1.524175731893859
132.96130441866896 111.48809641705876 1.5284630205022867
146.25266031154771 110.73201542656241 1.665041114789714
146.77052540480724 110.7140236702608 1.6693285040709551
132.2066703147405 109.97359156972172 1.5216251829089853
132.7056199593926 109.88779061461312 1.5254415174802345
146.11989385206158 108.9782347759716 1.6613849217151528
146.48363167830246 109.00746045673807 1.6656991118699733
131.91660565444263 108.24268290864666 1.5161019600749601
132.38985754456306 108.24575637383353 1.5197453326416297
146.00097252802792 107.74511266796702 1.6588416465521227
146.19088607167131 107.30153613897583 1.660711695070577
131.63221229517072 106.55613371675142 1.510933988264756
131.8556773857047 106.510960421084 1.5137600032063796
145.90132113919347 105.65994101780902 1.6563835942087675
131.48337862867086 105.11969285435067 1.5071760773687546
131.7593725319249 105.4044677001352 1.5095718899765478
145.86933153837145 104.33499210901192 1.6533325371201293
146.205285730816 103.19991687920324 1.6502216447548146
119.35825925400202 117.31022675203658 1.3836748563934047
119.87449367024232 117.27505806837394 1.3909995280048224
135.38348598796685 116.1435652584181 1.5354124108748362
135.33805088842757 116.10815701202881 1.5380317023738264
136.75901399329322 116.02752737533606 1.5529983386228683
140.95897628083307 115.4627683625322 1.593796198084649
143.28003577559915 115.83200916813456 1.6217755549874013
147.61048418953501 115.28461219521512 1.6636450409383963
149.28430083945474 115.2740667764334 1.6799559256255658
135.02503698680036 114.64129374317444 1.5373118864048478
136.0359665623102 115.07498750558044 1.547236905638196
136.6959987929888 114.48199509699795 1.554580032769456
137.28679144102608 113.86468620498547 1.5576837815107019
139.6067070231159 113.99411519156763 1.5824396656684374
140.2920857324099 114.24390860867628 1.5904668315821542
141.1719748715419 114.16975200175224 1.5989145875223645
142.13166929539767 114.08359501950329 1.6074305733393819
142.99573153635762 114.15224420775299 1.6172011163973121
143.73554055397727 113.91269635484157 1.624304240643653
146.363739893854 113.67861097170031 1.652780971616766
147.1599336237158 114.33316205400698 1.660508090319759
147.91338328767762 113.96462830074786 1.668784703757671
148.44241246491697 113.99897905926176 1.6751607603714291
134.7259582141402 113.17908069800937 1.53270942812398
137.33863526189594 113.53001765091702 1.560998123453041
138.30337513065783 113.28837089547439 1.5697394739496857
138.81668440449565 113.54652185637855 1.5772070053655745
143.7831353667132 113.36558003136022 1.6273412183771276
144.29887735610077 113.02011874913109 1.6313483044225467
145.3044575620076 112.91238025510368 1.6408160200512252
145.80436350922366 113.20864259076143 1.6467711483101795
147.82858849953072 112.32114962208597 1.6666149870603106
148.40270796895115 112.3301389362017 1.6713172520391006
134.35995922954504 111.4994475549351 1.5269480399927682
147.64350059496937 110.72759001260097 1.663475700869532
148.27846767563662 110.74765998480407 1.6677331544124279
133.70224871828108 109.8899382492016 1.5195877167579739
134.07494373558515 109.8981312743583 1.5238980102090163
147.5266282906089 109.13656603024734 1.6601034408377684
147.96835285535718 109.07810842773122 1.6642743284987866
133.32964885070797 108.18741120384304 1.5140906406352856
133.7751230197864 108.19530029020119 1.5180972244343875
147.25318512856745 107.78264244950847 1.6574880159602907
147.6551057444765 107.24197342258327 1.6591584845631677
132.9328990057861 106.50765980608217 1.5089197078833134
133.2474480935503 106.6593289564078 1.5130022461350074
147.24130873213312 105.80147561393585 1.6551281252362167
132.60546073703685 104.7809672530321 1.5042794695629043
132.91730228092666 105.12963505540056 1.5075948654130755
147.00462814762463 104.04598524475459 1.6514201445706367
132.6629456613188 103.6583412266359 1.5012397370627364
147.1689621849791 102.66411201761959 1.648174852471468
135.96915068734427 116.0829581519468 1.5315059777252742
136.33934292517313 116.0184336256071 1.5367903622422066
137.59252728951233 116.00375446562742 1.5527321459141232
138.30024601571805 115.68171023696917 1.5521195463681392
141.9363377802627 115.58381668182552 1.591700639156351
144.70574444116465 115.90463394327207 1.6219876377581253
145.4908016139727 115.22269750250788 1.6218713055186136
148.60150181219737 115.12626851087253 1.660797774701407
150.4846568851059 115.11104358086682 1.6807754872548928
151.6673633967207 115.2935252955123 1.6863582203876215
136.4945775247841 114.74152374042194 1.5364897113347733
137.37664392351118 115.14757965788066 1.5456753859028864
138.17095608562278 114.67135949318194 1.554339297412715
138.87426364868222 113.94335761288885 1.5581672244432783
140.77532900937618 113.79707589520827 1.5724216479410904
140.79067130330284 114.12879183964192 1.579668426888851
141.70419088375897 114.54267961286605 1.5897874122638522
142.44241336639658 114.27008017790666 1.5970141844533665
143.3442965369244 114.16356881116741 1.606600560972281
144.1054923349961 114.2181398715856 1.6151241354416963
145.03084774420188 114.26057528006912 1.62362950135579
145.7463012982076 113.5395690917137 1.6282287496110641
147.3787460808333 113.34225071473976 1.642980080081353
147.70932693950905 113.82633426279966 1.6502609630255667
148.52546835652822 114.5054535785345 1.6605053377497834
149.28501852838417 114.10342723050782 1.6678546385915878
149.9846081103937 113.97116937243953 1.6733098836731406
136.05314529127745 113.12599953770987 1.5311751621373513
138.9839083222932 113.65904369829279 1.5613687546983879
139.7031434888946 113.55750686368027 1.568198680406043
139.9627506603512 113.68817343297849 1.574588011524284
145.93345316525904 113.22560352820521 1.6320884281127102
146.6654539275501 113.16043972524166 1.6390110370831246
146.6541610834235 113.26895158405921 1.6449899989945977
149.25223660343283 112.38191036206167 1.665186729798938
149.74833661194617 112.35725552935443 1.6698561324123515
135.70720038083832 111.5765515824143 1.5260837791338608
149.1835172932301 110.75967531421018 1.6618502816214906
149.49449007734685 110.64334158361038 1.6661151472912747
134.95368233046807 109.71396275833067 1.5175990119108842
135.38183716652566 109.88049420946896 1.5215778741712038
148.92979203768414 109.12790747106236 1.658475489302997
149.1872067296674 108.99602775079026 1.662681331482319
134.66750123036357 108.3581719451497 1.51308194355781
135.09552740065726 108.30914401591048 1.517183332577885
148.5954993222053 107.83250930281342 1.6559694983028401
148.9476532247859 107.3273277227359 1.657999458906543
134.32537440604625 106.5655544565247 1.5072984803320024
134.54976911431814 106.67469878201412 1.5117747310521468
148.71548700121502 105.67166962616861 1.653398345961379
133.85824384519174 104.95924359169751 1.5024849047438336
134.332153971904 104.99466661666119 1.5058067302441187
148.4722151424947 104.08552384811851 1.6500228557840122
133.7091436675877 103.31901493683007 1.498674575521336
134.52172690292699 104.07623802724643 1.5022360260293626
148.11623107543394 102.46019800379717 1.646303126326908
133.79693004015905 102.22272766151413 1.4945836931829324
148.40793637163262 101.25483230597757 1.6435172934494777
136.71887304858882 116.18765790779253 1.5222270414660914
137.0306934376047 115.9326230019871 1.5281090594710767
137.7049914342684 115.92977057966895 1.534891220382399
138.87951245289355 115.68148786517474 1.5520578575254849
142.7710848943534 115.59120588908529 1.5892902630422945
145.80943860614866 115.79890687744047 1.6218657610270324
146.02578412708135 115.31821694765831 1.62183859128698
149.37808321783046 115.00477402438928 1.6583309441679146
151.81971133129457 115.02574612052811 1.6778832750860866
152.85757311408025 115.09752056647366 1.6873991866935911
153.8365762677568 115.2012095484215 1.6926243621588573
137.8754420181691 114.81890061737532 1.5348036939072922
138.6658602585224 115.23592367805523 1.5436081010099458
139.3649567668029 114.81499546134125 1.5540597475710491
139.87837203995483 114.04159365326944 1.5586015246948752
141.0351089691852 113.83957515507176 1.568816549830885
141.7181947407406 114.27303482673787 1.5780887291917112
143.1725686272562 114.50202188078791 1.5894659957018862
143.92473702327166 114.29293988327807 1.5958986865450868
144.65760047968234 114.17641771815086 1.6045880425990418
145.45174525646502 114.25817939672872 1.6129616464999639
146.19495848559922 114.39044671212348 1.6237749883573056
146.82689107478225 113.58356520149862 1.6295733842232836
147.9833423966812 113.44266411183749 1.6415766638536544
148.68685495285717 114.00852844803936 1.649556517658113
150.17921559897187 114.55163165987825 1.6609296941090184
150.67885652224484 114.19981226651473 1.666320327936649
151.2560272756471 114.0258038339406 1.6718835042302325
137.48486149408797 113.20369408575776 1.529579608747177
139.96908541681228 113.78719847359785 1.5617885211327645
140.41260357815614 113.72437868207687 1.5658852929722487
146.8755105951406 113.32968665335335 1.6331913215989908
147.46028355568 113.32179638870534 1.6376540234675563
150.57361498972736 112.49304379753528 1.6640575833026232
150.99549783053632 112.32239150748049 1.6682932552245149
137.04028327275626 111.58310731417201 1.5244123936804348
150.52522804685816 110.72000392097537 1.660305996010884
150.89101335022463 110.64853208164968 1.664562890511316
136.4338942826608 109.62356901244391 1.5157647427869214
136.82169817819894 110.02541882260743 1.5201523597796713
150.29324232297017 109.05844797300934 1.656828915418881
150.59071710309925 108.87075719236454 1.6607324190929298
136.02360180662967 108.21571883004783 1.5111433673756482
136.39308334016343 108.2895487839843 1.515712337470066
149.92577018592004 107.72110739142572 1.6542332340247687
150.40387154195648 107.26944352723125 1.65603762455076
135.70610483186525 106.68099967640715 1.506023661712423
136.06364482490494 106.62527466506924 1.5100677394463682
150.01431561229202 105.83799423032228 1.6521222300955567
135.02743005426876 105.01597048137336 1.501102584198894
135.68478135355898 104.96103783047636 1.5043648152862072
149.7086399760992 104.08622144726853 1.6483794368214828
134.93937758865133 103.17688439614382 1.496830447142077
135.6155510530466 103.87582757178556 1.5004346533791928
149.51464752879502 102.43218225565312 1.6443264513917932
134.73512380386586 101.75233392423203 1.4919089009362463
149.45984176172357 100.80041764394353 1.6413040874307927
134.79023536009464 100.74246860077068 1.488131036978577
149.759063925487 99.5897249028607 1.6385170882914468
137.42137413537534 116.31211885484097 1.5122666219379395
137.61835753965934 116.08163541066239 1.5178800465130144
138.59673131619186 115.83477300337033 1.5270897687797629
139.11870830054718 115.9656614250244 1.53348110172476
153.2481445267954 114.98358002207853 1.6760887046327984
154.01147814173387 114.9506216728263 1.686363511886386
155.11646303345455 115.15020085205934 1.6947336464446723
139.18681204556168 114.82065246051972 1.5332527196340062
140.0964094395947 115.30924531108033 1.5427886183667423
144.49756663815165 114.47008969056071 1.5879157330055864
145.18381060705707 114.33162891553508 1.5941846504797457
146.0773112779695 114.15099939817745 1.6026100408604227
146.9260603895788 114.31084178014447 1.611630582819591
151.88050788286208 114.60938527094673 1.660360012353917
152.26160299416875 114.17642102883906 1.66600485358334
152.70615127715013 113.90378321218071 1.6697510216668539
138.90256057701336 113.20831891117308 1.5281319098602095
152.04637978446863 112.27866515698648 1.662094231062037
152.4305747141699 112.26744944869367 1.6663345822597337
138.4822513977644 111.5695837990723 1.5228981407980133
151.78113348193824 110.6383247674997 1.6588434856619623
152.15680969051022 110.73726811667554 1.66321738490952
137.65389735415744 109.59152017163275 1.5143279332373618
138.12305715977396 110.03360082311181 1.5185599017871896
151.62392039339846 109.11208852539863 1.6555447278204283
152.0244021794696 109.14693554626069 1.6597194722041022
137.3813358439741 108.26587369952465 1.5099642432622016
137.8350800298904 108.11426552916271 1.513437687438884
151.43444636086545 107.8983218464748 1.6530038947579855
151.70923258991456 107.29952762828121 1.6546821156221923
136.99409261452573 106.65966613616999 1.5046218291752758
137.43590121245194 106.58712668476008 1.5084048692942547
151.4534712159355 105.82033413340956 1.6507725158085145
136.79890010320028 105.57024298125287 1.5009561912080132
137.17034964931094 105.05326403356372 1.5031931571151202
151.00079882794796 104.17109847212376 1.6456955923335301
136.4342181557456 102.86324418707378 1.4951058059941376
136.98174533256633 103.65000635880695 1.4983124458916917
150.81452196758624 102.3957891375788 1.6420556577996566
136.02504904163374 101.57388699135845 1.4902546361405087
150.706422133587 100.75598166488 1.6396192311569868
135.81236636777155 100.30319456190914 1.4856080078493494
150.61786337816844 99.2697271884361 1.6365400395544498
136.0289246062671 99.18077011742157 1.4811073692007963
150.98907141279378 98.25799458041213 1.6340297154393988
138.143847202916 116.44365639821623 1.5030239536110122
138.15713473413632 116.21905736907954 1.508430118663148
138.99102211389672 115.96288565776089 1.5168749315197239
139.8116662318426 115.83901812649421 1.5248377520291612
140.5416231938585 115.93824789623177 1.5315927973040737
154.59761503589613 114.97405573393998 1.6739010638073313
155.52210798346272 114.90509000938786 1.6838875509645823
156.36180850649106 114.95005929873284 1.6933557035698636
157.2805858436558 115.08578948200372 1.7004554440794095
140.62791216837186 114.86053930905453 1.53240473970326
141.2379707829522 115.38757431904575 1.540903325180663
145.89996281957957 114.55902672609703 1.5867858679156126
146.59169872084274 114.44675061898607 1.5931296630704717
147.60983630962855 114.27152961429749 1.602647522263764
148.10821371829724 114.42978856862264 1.6100571368380496
153.20841797130942 114.69808314345704 1.6592861976250233
153.62954220707593 114.22680791041854 1.6650127931693168
153.99010599442389 113.78619720010752 1.6678601255511802
140.20668841106496 113.21371152803806 1.5266025224934487
153.3881251461651 112.40820811772329 1.660989027288482
153.95196795435734 112.46774661862852 1.6648448036546015
139.7747154588301 111.64850770988232 1.5218017320680597
153.263129044366 110.7114071198096 1.6575346434104385
153.5841156432645 110.65582754090747 1.6612092620173993
139.0212861278894 109.36524578463762 1.5121818748957254
139.50286213670762 110.0529948315362 1.5167284621802433
153.06506949197052 109.05207436496192 1.6539722919115067
153.3495711777752 109.16648857239005 1.6580982172127068
138.76308665679437 108.17172776184012 1.508238304676348
139.29021798185107 108.26213024639378 1.5122399215452367
152.64204238591583 108.06385217834583 1.6521495215752535
152.86908201017076 107.31098700228102 1.6522247156447445
138.51438723771642 106.78426530668933 1.5036007216533824
138.76292126610576 106.66314893393783 1.507148071930246
152.82197790780734 105.81698520557138 1.6486507105656394
138.22791685688605 104.8588842037872 1.4970931489816155
138.4452311789047 104.93274978423068 1.5013114670230694
152.67469416593732 104.10427714699483 1.6449322467008707
137.71022084666188 102.93298896477837 1.4928922191639773
138.07500438056235 103.57333604050069 1.4968619971150643
152.2783476653869 102.33264656366491 1.6412229980946615
137.332122808409 101.6747902292199 1.4887757412212437
152.05701948089325 100.73059968274414 1.638385100887136
136.94418041515948 100.0226403631817 1.48320384861686
151.9967865132605 99.16093178438787 1.635117499912652
136.9117745217337 98.78082691541525 1.4788624635630292
151.75059771933692 97.76946895861714 1.6321060999584138
152.3232815311532 97.28574082813458 1.6312423790757538
138.8675573801459 116.3631750402344 1.4991691749695988
139.45719989311797 116.0952948786858 1.5061950700228184
140.48865206435036 115.94725778410853 1.5155951025993968
141.30059068938587 115.86714953866394 1.523174718188284
141.9197711537122 115.88889606021556 1.530607936139146
155.6598844210895 114.89280416439716 1.6682966127139502
155.9422894416993 115.02764351544303 1.67300327357603
156.82275049024983 114.91868279173264 1.6820204392750067
157.8140986437045 114.91762209748897 1.6914950188753302
158.56737413205306 114.98504257448167 1.7008296548851978
159.55753690935418 115.13664246860945 1.7073973303225702
141.99911844211434 114.86073929711617 1.5310664735238482
142.72579267739974 115.48392016110476 1.5395812610030264
147.34477732516245 114.70340313133738 1.5854564250166385
147.97962343111286 114.45799117605432 1.5915182762307287
148.77469354524598 114.21307555627018 1.5997686074128799
149.68751685935058 114.52079263640879 1.6091950851052164
154.56800298886827 114.78054953795657 1.6583293419584029
155.0773488917668 114.2303232193814 1.6635732424626835
155.11080928795877 113.5091692889291 1.6656343239710418
141.67940144021975 113.2916876494869 1.5254909386671132
154.83273669785967 112.39152275342475 1.6596235057476318
155.21784384996775 112.22407206580321 1.6625037759327919
141.111640293471 111.51054798302563 1.5196529790098539
154.60360360784222 110.73981317978199 1.6565847591554326
154.83599180129667 110.60240762130702 1.6591324447782336
140.1062345697597 109.1429696642557 1.510368172504452
140.79028043824536 109.97620831954426 1.514743369687253
154.4199309809592 109.23741834331422 1.6530867544238386
154.78304428035347 109.06197899080608 1.655553611363297
140.23379092622537 108.2380543772717 1.5071042903727632
140.5639973481432 108.37630354416952 1.5108457661506245
153.82970222449944 108.15238609488729 1.6511737910370934
154.44408799385144 107.41884215991526 1.6509719769323503
139.82059315281646 106.58280706978198 1.5016924093254198
140.02575106518879 106.61028045168572 1.5053944863091175
154.08744820850944 105.68912110595286 1.6472853497683735
139.3649346120981 105.00950319997851 1.496574355858567
139.6642892255188 104.91658655401685 1.4997931567433798
153.95276112670737 104.10951958237008 1.643989358286924
139.09364861497673 103.23154708719171 1.491535918524783
139.5052617500745 103.61345445860763 1.4953382271728317
153.75422425145211 102.51344301838623 1.6404927557346205
138.72594879225227 101.7141616128072 1.4870815766365433
153.50246019819068 100.8134761495887 1.6369616973170467
138.34599037299165 100.07542945262873 1.4817634971167675
153.1982932428244 99.14656485789149 1.632987109595307
153.62188151427435 98.38239221341013 1.632993066294894
137.983282970795 98.44108541502503 1.476547898341374
153.02976597612755 97.58923526531696 1.6290502376606062
153.06818123171868 97.54699755914912 1.6313397203428792
137.82567005718352 97.53197542132229 1.4732401820084977
152.84028483515675 96.54863467249025 1.6274431289048916
153.109118143485 96.5878049334078 1.628762259882653
139.40819877729996 116.49751920273194 1.4897000268092655
139.93162127075487 116.24905418204963 1.4962732270255168
140.92056950392822 116.07243776977775 1.5049955801392667
141.68855144148316 115.97962001757764 1.5134484689547858
142.49311484716128 115.89683904424207 1.5218340279707938
143.3995367344612 115.96690129174874 1.52977629233735
156.85278749069397 114.9474718206085 1.6662726345457504
157.3257396433885 115.07521163069296 1.671148360952703
158.08793822600532 114.94321181879563 1.681015661129401
159.13509630267166 114.93077698340507 1.6895322505343813
159.9036692037065 114.92629325067155 1.6981921893622909
160.87950088659989 115.0380079702973 1.7080553397988592
161.81709716618334 115.14101167792907 1.7137849947591592
143.44615208449665 114.97732724255305 1.529988681817211
143.9522806918616 115.56752062815929 1.5373109384376744
148.80154942184296 114.91695279524653 1.5854913366063808
149.2558387464714 114.68266433602113 1.589928278492924
150.0828427379526 114.40297556801636 1.6000843000824367
151.03584052817996 114.74184077709549 1.6078168181670913
155.79141798136803 114.84687769117465 1.6577559964380515
156.46530214497963 114.23070555951581 1.6624723284945941
156.07883528729417 113.26717017921139 1.663523602746825
142.9894748784851 113.19635098304984 1.5236524468464412
156.35759472790397 112.41728689312924 1.6587777330506253
156.241359121885 112.26415907926791 1.6609170769477783
142.0291442142167 111.41817041503187 1.518377467815594
155.43640244997084 111.21224237180614 1.6567740386650573
155.42424068175347 109.96308335386514 1.6554080997122675
141.5369008517123 109.58247642026011 1.5119291716367518
155.23609059609697 108.47653713478029 1.651848595308279
141.2971554257307 108.06368482865929 1.5055411065542783
141.5642497734468 108.29329723376925 1.5085605853663002
155.33801489085522 107.27312981021177 1.649059892829028
141.19604884391828 106.52385188874034 1.500292709399582
141.56705264122456 106.55474109431616 1.5036056387796792
154.9605744544426 105.63556919022311 1.6424654303961164
155.46629673781513 105.70269873673259 1.6452012666248863
140.7496654603961 104.97064964735961 1.4952201860787118
141.12217076307078 105.03353267599022 1.4982971402495384
155.32722961419773 104.12161343740857 1.6424762427155386
140.55564154991094 103.19651156639175 1.4901588923790399
140.86749841015643 103.78327528338282 1.494183305582383
155.0336110401484 102.4765335473808 1.638922937195137
140.1396510166648 101.72038527155249 1.4859045634838843
154.87311254856385 100.73469404474189 1.6350440965774717
139.7163637521929 100.01932744211155 1.4803171685900303
154.60403914056025 99.2196911038648 1.6317353620697512
154.54606684223893 98.50170923252227 1.6321784995407127
139.39275572119269 98.43202436776889 1.4750316628764502
154.2769978901919 97.49127641476856 1.627178338517
154.57948471954467 97.49296439924764 1.6297344215897025
140.14770348275997 116.59483834586344 1.4799112818310745
140.34854501987115 116.39826265166359 1.4850125878335447
141.4695930971603 116.19394374220866 1.4946595039346646
142.04087050633734 116.10225623304858 1.5027828744200853
143.18818419946203 116.01297259086564 1.5122643867654455
143.92996454804018 115.96174840099032 1.5206342454823272
144.82088797253073 115.95998502373492 1.5292023179328949
145.6882349099098 115.68330324694476 1.5344031128467426
158.0252381939697 114.97421048325404 1.6619107220322058
158.7044578505928 115.13553359393714 1.669541775677584
159.47967642125766 114.99905839110396 1.6790365240945677
160.46851051989978 114.95735435220544 1.6884015630431477
