# .PCD v0.7 - Point Cloud Data file format
VERSION 0.7
FIELDS x y z
SIZE 4 4 4
TYPE F F F
COUNT 1 1 1
WIDTH 876
HEIGHT 1
VIEWPOINT 0 0 0 1 0 0 0
POINTS 876
DATA ascii
75.75410761914759 80.86390671934768 1.2082452915483424
94.68566255506757 84.80862617416857 1.3808970325397398
94.39480164031367 84.66328722231611 1.3747635413600416
93.15060072384935 84.38785338775494 1.3643458510327737
92.22863198313647 84.31767264985324 1.3563801936867703
91.11441532479618 84.24108512992169 1.3474981839548306
90.1592903033006 84.19048009646752 1.3389133643428428
88.86738945647868 84.14353059299478 1.3297001683009213
87.762592074105 84.12241552977198 1.3212249735284338
86.76799960076957 84.11631438570458 1.3127937692398195
85.75677933357434 84.10977939322564 1.3036568807810762
84.93428426957787 84.12503780227712 1.2996278799529177
68.17449172929477 85.02242112761337 1.1648972183314872
67.55439639869553 85.08913741144788 1.1605534811602887
66.46021894489047 85.21077524418098 1.1517777331392751
65.49834674621722 85.323700400743 1.143484117481187
64.30836648567987 85.46399514842761 1.1352015070198536
63.20845860011855 85.60990881716933 1.1277087697077741
62.332906068190916 85.76916671646879 1.119408948377968
61.20400266615743 85.96400208157114 1.1105919565845217
60.101940442141604 86.15861986716837 1.1024980674971854
59.190026353829744 86.44540653267777 1.0946955355921955
58.08490394534334 86.7030234100329 1.0899991321971247
84.50567912630343 83.34959362494816 1.2939401752517001
83.40828583664435 83.86305941992228 1.2864218474138536
82.38513097899879 83.64392208271944 1.277250050376335
81.21657105428089 83.45078754540009 1.2682486846824308
80.18571428819331 83.26766757718104 1.2590980933973948
79.00831406932188 83.08570104699209 1.2499909503170836
78.27646090828263 82.84711964994221 1.2437634777847448
74.02639371712695 83.10610784184752 1.2119819439034396
73.65538768053328 83.35345596071484 1.2075767359110856
72.5623974260187 83.6716019213407 1.199394622970999
71.57169287588744 83.95734402538417 1.1918226158963798
70.65116739633221 84.25122910409279 1.1842175447883716
69.60381532056506 84.58636454563785 1.1765346143000368
68.34609351863982 84.3280926899345 1.1659671025509313
77.88759650406057 82.04558142217088 1.23905453890699
74.50645391058383 82.00986939825071 1.211365897981535
77.23028477541065 80.8954086765049 1.232034108548411
76.52189002331401 80.45555504361558 1.2256599392047571
75.32351526061866 80.48793700584737 1.2167878029846233
74.60396192350558 81.04836986226002 1.2123988374607162
94.53656211636823 84.76258026046322 1.392788122923754
94.22945916853837 84.65295874678824 1.3862264269549742
93.18908342741106 84.43395251044325 1.3769183205926105
91.9657733410063 84.35093781930969 1.367739626577178
90.92998610140302 84.28687532500152 1.3588495447101698
89.84026290259268 84.23550302478938 1.350229800295409
88.77538749490114 84.19551356679547 1.3413207593511371
87.76502270630316 84.17885714158048 1.3333426036081693
86.64800628166604 84.1764206521601 1.3248067066270792
85.59979616681942 84.17185874775095 1.3157916413873634
84.39513928491895 84.18279284228144 1.3068960922139827
83.32952150567091 84.15479397425295 1.300185340419797
66.94569277799087 85.02969450468251 1.1702242074019187
66.32319706365928 85.1604770908357 1.1632140107088145
65.23273521118048 85.26554907997266 1.1557186737023621
64.14676681860846 85.38553241079609 1.146864645515371
63.11873104610901 85.50509907837147 1.1381325363310077
61.93635527501396 85.64135530749604 1.129648099274873
61.00798895350013 85.78186630056057 1.121673953655477
60.020443631155295 85.93316279550864 1.1141181669674087
59.02349864534896 86.10674985409453 1.105912706124716
57.976622506463826 86.29351513513022 1.0977185097378024
57.00975574104393 86.6285712040978 1.0892587668423621
55.76570987925493 86.80899602391317 1.0838463396338787
83.34100451685654 83.36510686982294 1.2968576981228954
82.17838374721975 83.93271250165259 1.2891862862396013
81.0767373564222 83.71441868147494 1.2798293264168552
80.08194154442158 83.53726158465763 1.2714510808529096
78.87269503102439 83.34956611946292 1.261500590616897
77.74338961649961 83.17888543142111 1.2526410128334011
77.02587894107752 82.95746863448461 1.246633511818703
73.15437092028948 83.15404811995117 1.2148819482786843
72.5103541767011 83.45264416318243 1.210616354405125
71.42180300109482 83.76478825806771 1.2022036016421882
70.56902509933578 84.02154188346047 1.1947715603273241
69.41823574400297 84.35768296493585 1.186449259549061
68.4861002097842 84.66314683690905 1.1792706289330135
67.14288459381024 84.26505227564165 1.168358416314564
76.47039405048626 81.98740118234387 1.2407536590478394
73.28432422781506 81.99396603828953 1.2156929030424832
76.0789994820346 81.07287328084205 1.2344952634397908
75.29884142219373 80.80059575697231 1.2295893872387806
74.11345444136184 80.83308108294153 1.2207306168004108
73.77941076359578 81.13807073702645 1.2156469906442366
53.37700990594112 87.2532383324366 1.078872091475116
94.48164646185849 84.79551970833054 1.4047727313652205
94.05537193389944 84.66032434362744 1.3970707314803605
93.00215012133194 84.46506545453497 1.3880643403410835
91.96246282917222 84.39958303331319 1.379869384506622
90.91130138977303 84.3384548544386 1.3708225913239962
89.6897919313959 84.2846244338859 1.3621292715305946
88.68432692683304 84.25149980128158 1.353346861795967
87.4877899213923 84.23968882815691 1.3445066377027852
86.64455424217849 84.2275132975662 1.3358127288781465
85.4548952282294 84.2306542228741 1.3273786826684364
84.47508612958885 84.23306329954377 1.3186591465367299
83.23197637002347 84.25252412842953 1.3101568109504356
82.01322728601205 84.15643510440154 1.299524227887676
81.41309126893292 84.10926532084181 1.2961681845919415
66.55417035065626 84.90186770000594 1.180138132243143
66.15546663708778 85.01640134506621 1.174271805928073
65.12194830427948 85.2308962526167 1.1665574710405506
64.0671606693624 85.33259824075992 1.1585417589309916
62.986550474090876 85.44134459500546 1.1498397153340405
61.959379301166194 85.55638810921211 1.1412663615599001
61.05743725633399 85.66361095374748 1.1332705503758496
59.84380072096458 85.80156782590255 1.1246656184478259
58.80856969678578 85.93736938993408 1.116842479380428
57.738115145531154 86.094861867027 1.108878297271835
56.72714814522409 86.26347204455627 1.100796169786373
55.76900727371695 86.43522526086741 1.0927738173029513
54.68647769409553 86.72696392892219 1.0840848664498215
53.60784452541959 86.95655470837228 1.0787390331102087
82.12692363230585 83.34719983018263 1.3001355397409848
81.13292218784294 84.01227519261948 1.2922688398342022
79.9393382025635 83.80317054716551 1.283150591424779
78.85723045798625 83.62067419335277 1.2743826396930675
77.7606227217552 83.44779699570557 1.2652206644896065
76.60507598302678 83.2798370264135 1.2561277251776624
75.929975205983 83.07129868021204 1.249396134069108
71.92951638650055 83.23620379795503 1.218826475183872
71.25329467137291 83.56329356628845 1.2133421414567045
70.3230009072071 83.81712209671997 1.2064611849654407
69.16879559048256 84.12645894955904 1.198240074510617
68.36444824614134 84.39611841640125 1.1907158855159006
67.23978223830744 84.73418140916282 1.182948993878166
65.86521006507876 84.15651094841277 1.1703293323919173
75.12375985443518 81.85169974246524 1.2415040981602046
74.19961545575065 81.23346399988161 1.2355691102501671
72.56083505667381 81.3018441373323 1.223723730579929
72.31231231335138 82.02878273227438 1.2192378162028648
73.9214744441351 81.02843734169114 1.230707365386321
73.18275752959656 81.08855172617855 1.2251333821738466
94.29130545438112 85.04645691528275 1.4170965874846342
94.36893390006782 85.02611072399586 1.4106707661816238
52.48463783893782 87.31630656273684 1.076802052123534
51.13400895487252 87.33729216064224 1.0726678016570208
94.39362183852728 84.8043590276402 1.4157005778795722
93.92619451843807 84.64064526475448 1.409154723191697
92.88130415374049 84.50244041792193 1.399918409997114
91.70355631805714 84.43760335294942 1.3912822180872346
90.72842643853046 84.38800645992704 1.3829890217963525
89.67153128992732 84.33501864404175 1.3738986009534704
88.46322422543378 84.30685343576468 1.3643668792190016
87.47245822397315 84.29746070741729 1.356705581648651
86.38556408641924 84.28978536085805 1.3473682842934684
85.26683832934953 84.29286692486542 1.339396898788957
84.22783245528916 84.29444196332949 1.3295046790725775
83.05454881366455 84.3193164447087 1.3219911921506433
82.12078056929991 84.32703829281434 1.313349427229345
81.07455458926748 84.19584026692304 1.3049848803091615
80.11938742802447 84.16075602167516 1.2981970079110579
65.69193285521754 84.91563710993569 1.1839276692090326
65.18818569697463 85.044551588191 1.1781390079307827
63.948488049352335 85.30895636268656 1.1694950282027317
62.96709132099387 85.40179638943137 1.16134546650275
61.86512387361237 85.50431972518643 1.1532665623054827
60.785475063825615 85.61040349392724 1.1448513774767906
59.719776797898845 85.72187405850883 1.1369000820433655
58.68148439997735 85.84124815974694 1.1284770141634355
57.758762433418596 85.9576810059223 1.1201242245012009
56.562487576982036 86.09926138562925 1.1118347460056341
55.55840836391033 86.24954388328918 1.1038732386604924
54.53835403040648 86.42135976416513 1.095343566378178
53.417191926120786 86.58845856180281 1.087493791338122
52.42563999589706 86.80277278248495 1.078993061597089
51.29551237663519 87.03009940377336 1.0729993695437365
80.90560910564525 83.28677087008664 1.3030014331787139
79.56577754237944 84.04310209797846 1.2932224056404005
78.7168297458173 83.88444769292758 1.285940041929685
77.68812092649988 83.71433307965799 1.2774987675882394
76.35239085123219 83.53628277291541 1.2677707921661803
75.45816866011135 83.37070907180227 1.2592275789158203
74.50388709558644 83.14166581307293 1.252158481435354
70.94727937069467 83.27251908597617 1.222189472658965
70.0413000254075 83.64076071664304 1.2174020854415066
69.10643857287855 83.93170905097378 1.2087556264644426
68.1218899993273 84.20583841624112 1.2012127247470188
67.05202096097676 84.51557371384183 1.1931197259772146
66.2275139385763 84.76545311618935 1.1870269791079509
64.5586941441807 84.1269307342513 1.1733797471514888
73.94474704923903 82.2131137578344 1.245526551058938
72.89837409087517 81.44668015231235 1.2366876214577893
71.91299066437242 81.46478375455112 1.228619505049362
71.09429890859451 82.29268402129348 1.223447980665502
94.2827917803774 85.00535743164517 1.4283512303636923
94.10048914933935 85.05231607913984 1.4230591437196571
50.04616691301037 87.38791854755544 1.072544480835184
49.12473087878269 87.42495964927822 1.0683728076556762
94.21733230901468 84.7710489663626 1.4274608706250371
93.75215814936297 84.67822262319638 1.420598345248483
92.73533388856201 84.54120211042837 1.4114486117389173
91.53408939102331 84.47505127285014 1.40222165293571
90.46476071772211 84.42744517060922 1.394070169415083
89.52309091288224 84.3853973168954 1.385039001572432
88.46443195300547 84.36629983210787 1.376990366199523
87.30435167868507 84.35236279467848 1.3674210318254332
86.26561213089253 84.34892578579806 1.35938915398719
85.17334260046412 84.35127327205147 1.3511498225075071
84.0385883902281 84.36393968751305 1.3424180228165048
83.07844207155223 84.37926890583573 1.3339927537527156
81.9314818408961 84.40069282671315 1.325476638603211
80.88451431936767 84.41328032707396 1.3170856723089743
80.01516787340975 84.25865704462079 1.3088863803392299
78.66556919089756 84.19931572070672 1.29935642216507
77.59338329027256 84.10994528160296 1.2950899237477935
64.74959063463021 84.91667054097361 1.1890506071447302
63.62615120650102 85.10883570599324 1.1806098176689999
62.695828386377556 85.39323649672303 1.1726863569888193
61.59961262169536 85.49904288510704 1.164166028331956
60.58600218792772 85.59504093370468 1.1561875124430228
59.533778834241815 85.68874590557331 1.1478107645304236
58.53875182072505 85.78325900759214 1.1397182140320987
57.55634480030558 85.89205933835116 1.131137766769096
56.44227364845982 86.01404785750341 1.123018651382218
55.35588310588939 86.14020655707208 1.1146279604037126
54.349131113220686 86.26356469817638 1.1069214419714106
53.18400659963131 86.41891694137323 1.0982576568144942
52.19505856718787 86.57650671393061 1.090195864296847
51.24319720041994 86.7408288170858 1.0820989070716276
50.170115028368684 86.97102974248335 1.0739423914043227
49.02540610448047 87.14773681129428 1.0679310936562671
79.65649737944075 83.40925956306049 1.3059311265502829
78.48804378051246 84.09160575161852 1.2947639503846986
77.52461312701226 83.98463835870186 1.2894433747556022
76.41087968382519 83.81377254060973 1.2806673044848982
75.40060774006992 83.64090981333382 1.271784350266348
74.22828908024337 83.46875448621344 1.2623713238869692
73.18413524039511 83.22694163167095 1.2545185525462987
69.68302143303153 83.33705639967808 1.226384288057199
68.85470589846881 83.74203211436954 1.2205944226818992
67.83736555806344 84.02722702576051 1.212032676255853
66.75755428060059 84.32238725911002 1.2044373917601034
65.75251434159605 84.60634771332089 1.1969698146339378
65.4105685771491 84.777720826777 1.1911467639680644
63.365485532077 84.21281436310292 1.1765462051957118
72.72835910027877 82.37000901889314 1.2480725351040916
71.71446604287574 81.79458388512877 1.2405920445179823
70.87156113197922 81.77256220150166 1.232506293231641
70.0828408176649 82.40147441100098 1.227246689973728
94.22952841276573 84.95187531903666 1.439307126824885
93.98027326239728 84.99390946008808 1.4341958849930303
93.5157387381929 85.04572048781434 1.427802544585116
48.0148708688436 87.44810839091261 1.068138894423414
46.82318650674586 87.53575062029509 1.062513789047388
94.02010351217595 84.7488336415306 1.438951604149881
93.59218309763017 84.67399430896907 1.4322064349924055
92.80523655047563 84.60324116966297 1.4238134909347038
91.4347228672911 84.51680555294774 1.4137003819714793
90.46870350586867 84.47238444710662 1.4058795322008637
89.30290529208773 84.44129733071307 1.3972959403592322
88.32156038760654 84.4227326275869 1.3883055804955806
87.27668541393736 84.41149071718934 1.3799812286549278
86.09534297827254 84.4084608221223 1.3711727767305302
85.13504709575324 84.40566700949648 1.3627995321345323
84.11366127404861 84.42210131795058 1.3551306324330843
82.79756910305943 84.454668084464 1.3452274468908647
81.84371151594813 84.46380463671733 1.3366744545549527
80.70284176564658 84.48794175569935 1.3294433846842084
79.76715346534436 84.49448444486606 1.320248747244871
78.44764443625061 84.28517697658852 1.3105903850363112
77.48868689243638 84.26880400366186 1.3018637203320937
76.5197736335892 84.14975899810648 1.2961181023993373
64.21022024183347 84.79923126784261 1.1972931400710285
63.64694038262418 84.99058960819367 1.1920152630242524
62.65438262940932 85.14681705680978 1.1845005826361967
61.543898867518045 85.47954428415787 1.175554850914169
60.55317652980155 85.56612450675243 1.1685825983023337
59.50271321022048 85.66590485416457 1.1604001012249705
58.34831209821271 85.77740333929954 1.151213871628671
57.07833225484684 85.88818634493143 1.1425030608459
56.24358346526829 85.96266173403086 1.134351540446374
55.16052210326224 86.0750760444379 1.1256038781825575
54.225913535720274 86.18046622852248 1.1182717444206798
53.21445273774084 86.30321282218542 1.1097058325624145
52.061605921769825 86.4390589929539 1.1011912438008515
51.07062159550061 86.56762701457554 1.0933373113646367
49.90574478803724 86.71973873639733 1.085694653331415
48.86807414356197 86.88334400757398 1.077561780132583
47.83889012266198 87.0979933824913 1.0683290732717579
46.9842920844267 87.25784947038646 1.0629446709961679
78.52464918399092 83.36633784094815 1.3087709908609761
76.35405443219119 84.0510192575565 1.2914207020348736
75.39898358150158 83.89829630447706 1.283736878055068
74.2246649153698 83.73502815511769 1.2753359722529813
73.0625229553384 83.57373305412906 1.2654465217966506
71.92631675753961 83.30042780371673 1.257066349446339
68.56612689141343 83.41966597554239 1.229991952495065
67.71334583514377 83.85478888062569 1.2232907819448993
66.65271651206693 84.10469787397922 1.2153717828775643
65.64803533169804 84.38963247727546 1.2078753115965655
64.80039406424594 84.64618013085044 1.200984242989002
62.17940081295505 84.31685072733585 1.1793305429069125
71.5364567764377 82.62023405016362 1.2511355415501475
70.57704428329873 82.13484788050437 1.2444897913340676
69.60614958955831 82.14159170651217 1.2360912776266049
68.84276318141107 82.55908827404494 1.2320589457967135
93.97967776218945 84.86366825950478 1.451508917875476
93.90112188270699 84.93993542012377 1.4448597650030315
93.40648897954152 84.94988458699571 1.4380045410954236
45.47366537507806 87.57502456666636 1.0616928800106138
44.6893377436068 87.5284164316444 1.0568387792859668
93.47392136307009 84.69565624515548 1.4433803106081675
92.6720498210328 84.62519227914837 1.435897347589071
91.39287474018472 84.56508767348642 1.4270673157615477
90.29540211600548 84.5157189545989 1.417532699559382
89.34434619664796 84.4927558545635 1.409620956538021
88.03968660476652 84.48207295574025 1.4003315497533135
87.15537033474709 84.47047759907014 1.3920425487108927
85.90611740044456 84.46443955821002 1.3820140732721242
84.97631409380362 84.468981193489 1.3745761204181637
83.75099003210366 84.50118288716138 1.365717415079853
82.77546245499582 84.5198060012413 1.3572541240726579
81.69507905224673 84.53516581903098 1.3487963818881032
80.65047122577825 84.55192030459558 1.3402665705480687
79.5383789224797 84.59110483810699 1.3320219716507844
78.52589115127282 84.6271095142117 1.3229604735495761
77.28596479779563 84.34981003385614 1.3141160534109957
76.33350971952972 84.34904770101919 1.3052055631847304
75.26357986910202 84.1958955115545 1.2974287763118508
63.20235700543967 84.8159809898817 1.202229359341022
62.43863773954641 85.06498427729453 1.195319201057556
61.18571498627173 85.16030663176905 1.1859582844532426
60.359901079525706 85.62430325779118 1.1794094409496518
59.42293936481442 85.68334344062251 1.1718477976404678
58.33325946192111 85.75796407061584 1.1626573041599808
57.152305596038005 85.85967295041358 1.1546981879431357
56.10540352125623 85.95876106139303 1.1463131740160892
55.100091926590395 86.05066750445458 1.1385448109835046
54.04483214941408 86.13911794292916 1.12942414601033
53.004369346343324 86.23644273962412 1.121274962284588
51.92101021572573 86.3592698957073 1.1124383228947599
50.78887110815502 86.48509132335181 1.1039462545866572
49.84035762119734 86.59390658280529 1.0970302041363467
48.66059168293925 86.74776083165929 1.0870647912086442
47.747350060100615 86.8799864516279 1.0798609677454363
46.64549038439198 87.03690331711246 1.0720551495775903
45.7239368949904 87.21004216046441 1.063899169256887
44.54958744600215 87.35556334742681 1.0579532663234914
77.23357523586134 83.34733093200603 1.3121592897165364
74.93097326802045 84.0894346107569 1.2924946570386
74.02013554481448 83.96815144062566 1.2866877825948724
72.91614731699143 83.81650359202364 1.2781120163146564
71.84971881165241 83.69525090514715 1.2691102009766912
70.65969570336438 83.37912641210572 1.2591097869416865
69.57974916566124 82.85010424200453 1.254881654072531
67.50488199371651 83.46930472384497 1.2340131345651602
66.55412216336609 83.96304765906085 1.2267251923518707
65.5833033497787 84.17466092659578 1.2187795908920436
64.41740863882254 84.45311922464522 1.2114728186749668
63.79505540390616 84.6635283501711 1.2055145113157513
60.81510638723273 84.21834454742675 1.1824582595415924
70.63802946416443 82.63897670902047 1.2520874140363503
69.41368818302107 82.4496549259635 1.248156183544178
68.42829446562483 82.49780303102203 1.240111356334002
68.09305982436942 82.6880020863655 1.2349418811643176
93.90426850476007 84.9306674210676 1.4633494116949097
93.63022244216594 84.80964117308343 1.4563930274565458
93.32188069251069 84.88562758351594 1.4496319558337594
43.1241610094656 87.42121493451317 1.0557300788104418
42.30283032223685 87.63607477327825 1.0515290982757435
93.02181667601187 84.69143937920694 1.4528321631647831
92.36330615112863 84.65126655749009 1.4466308376488985
91.31349790139942 84.60173194458797 1.437827513754634
90.30930781214506 84.56514078350145 1.4301299038174997
89.61843078124903 84.54384186029908 1.4236281026588602
88.2206423332261 84.52313705924546 1.4114655858319107
86.97015510405197 84.52297411910011 1.4031713366546645
85.8580837907213 84.52460990388809 1.3947342735081305
84.8239307299953 84.54017611084814 1.3870459297264042
83.80499398924167 84.56442968309028 1.3782739117575593
82.62685635291837 84.58903659867809 1.368903679441969
81.50250647542401 84.61266484624643 1.3603424015809615
80.52977417146646 84.63922371240862 1.3515499786804026
79.406636232145 84.70221116003472 1.343974457015202
78.35468348861973 84.74398975159384 1.3347953392529286
77.3532502380359 84.78093438371158 1.3262331696291068
76.22793210700031 84.44863574118051 1.3178000142581263
75.08604521862836 84.42852253229955 1.3082475345633935
74.00534191518 84.23036354824293 1.2989265484672785
73.08113768227334 84.121001478215 1.2945264487440993
62.19353846032694 84.67172720660412 1.2117480282999609
62.15917208858489 84.83815651495401 1.206140830758001
61.22010629693318 85.16197210621344 1.197632231876742
60.19422386537235 85.28051250849484 1.19030261884153
59.25239806934526 85.61606465192784 1.1833977953812258
58.17174377227418 85.84569640939083 1.1746174320114036
56.961381587787486 85.93303555848618 1.166361521555074
56.074568471904655 85.9777703716981 1.1580667354936582
54.91590537528555 86.05709703798593 1.149290460703324
53.802039701824185 86.14745164974985 1.141104934967101
52.72864040219953 86.24655744861806 1.1316696581094225
51.69835402538685 86.33112975638726 1.1234149405795006
50.66087936329801 86.4212929213307 1.1157556445732137
49.64335336273817 86.52239570958847 1.1082385074544925
48.805367941977906 86.63520383043534 1.098527021282601
47.25387745535842 86.79717215236613 1.0889084634307364
46.65456151984519 86.8787484041409 1.0833765903520083
45.40252938826802 87.04441198439042 1.074106397774522
44.39747775028013 87.19079528303045 1.0666482399525967
43.52943514828014 87.32752311201192 1.0598911868708
76.0298382769784 83.17561912639785 1.3146069855325428
72.81897709945052 84.01210524311936 1.2894302692370372
71.84051611438139 83.8029965452025 1.2814627356726287
70.64668562098889 83.80375821387028 1.2719628125839137
69.25229791230456 83.41522529205538 1.2611783244144432
68.35237699642154 82.83772441240333 1.2541634876314833
66.92972348168668 82.84115954518414 1.2434666759960278
66.35707618904237 83.5967967289454 1.2380531542307438
65.36710672516581 84.08040585241943 1.2300793318167003
64.1471982376439 84.16814899389227 1.2216907152029108
63.258379866497165 84.47721054506256 1.2141786579285962
62.92120819928345 84.66237096307385 1.209359408394707
59.76862087953373 83.95659175370338 1.1848602504923629
59.12496549839932 84.34911919233743 1.1840944295895368
75.52930269430516 82.200489692697 1.3130899161549345
68.92259069313599 82.3050483207863 1.2567592399763328
68.44659082051022 82.34376729566199 1.2517285616255958
67.64948505155513 82.68894990185956 1.2438774204993848
59.18167221684929 83.06621963896634 1.1820393984494626
93.5196391631131 84.95112066409847 1.4742906809444314
93.3143051832345 84.79843639578361 1.4674812006520823
92.34608451314433 84.69468708139398 1.4603468900219436
41.70141457631405 87.39139614287595 1.0586659716952858
41.095755670072286 87.52686658360511 1.0529320979163055
40.09724112143995 87.75615294328111 1.0468517101515142
92.10168417140848 84.67711944514288 1.4561317343388007
91.09402600523477 84.64088123722838 1.4491741235183595
89.99074084784432 84.60427789297036 1.4409171631215036
88.90916376417667 84.58799430985903 1.4325943620379964
87.849277370796 84.59208872080501 1.42691223934164
86.9015206680915 84.56023595271286 1.4117553214855068
85.62896332617353 84.58952302849457 1.4062134582332555
84.61873415303923 84.61185036073414 1.397908817150728
83.69404408604343 84.63729199174804 1.3904299450617177
82.47582474759508 84.66566471301476 1.3807204205785937
81.29969839944494 84.71804290058563 1.3722089963321589
80.34358952759092 84.76135045352375 1.3640200939471936
79.31127514947539 84.8137850240456 1.3560681546318498
78.1813730099742 84.86105643549425 1.3469029129866774
77.20478913748421 84.89369271078309 1.338415719105454
76.17461723254702 84.98210465691645 1.3308113663111398
74.95692016456881 84.42558480660068 1.3204466720820438
73.9447237877894 84.49811001952223 1.3118305015829679
72.84321521135429 84.30310569736956 1.3030151258793694
71.99269259696464 84.15764867335214 1.296651153364624
61.7050472888122 84.70379420743242 1.2131982023795929
60.96544320475411 84.86754669493732 1.2095850771726306
59.99874421981029 85.20159488861526 1.2014995848881456
59.047775418959525 85.32066317490444 1.1941581050287655
58.15612413875519 85.71324087014379 1.1868279757111888
56.9003460845869 86.03339374533573 1.1782758282970949
55.932659421916995 86.06992535514081 1.1697461019501298
54.78343538382046 86.14722325898708 1.1605557414653445
53.76840512864902 86.21118567511498 1.1525407576823352
52.722725424888296 86.27512914650443 1.1446085548583111
51.579635186220905 86.3452116038559 1.1356840754847648
50.530976442022315 86.42843117691777 1.1281256611186137
49.553973189742706 86.50927206869315 1.1189974342032518
48.576982281688416 86.5888991258385 1.1113814066412602
47.470660180357285 86.68494176496861 1.1038954696904129
45.85212896062739 86.8434469743921 1.0932690481129403
45.10188299802958 86.9412656578497 1.0851311858567785
44.22040157814278 87.04928839475836 1.07762761234965
43.180635339622356 87.19651807423462 1.068984383523063
42.27873402953604 87.31207700523683 1.0631270731120595
74.80125039841708 83.13990373473905 1.317278713237162
71.44357608934854 83.8900565388137 1.2914759853117528
70.38409952720986 83.64086646948246 1.2823385314734739
69.53191819133775 83.85487023549013 1.275605633254024
68.13727315582422 83.5420376524803 1.2643435316234657
67.18436055388727 83.06062304286557 1.257115389940253
66.04352310478805 83.0231696721862 1.2466774034094903
65.22762745059464 83.78866439330506 1.2413369639193226
64.11830808305845 84.18953857510549 1.233970418887175
63.034548415502854 84.02725091671303 1.2248314513630851
62.17126236493622 84.32327481249249 1.2170600427158003
58.68210556616994 83.89686270042888 1.1891357746915154
58.125037009031246 84.08488691069117 1.1853280871826117
74.52631800462323 81.91221604116977 1.3147175085002976
67.996576945263 82.44241469765623 1.258352770367317
67.52807533202422 82.46833470499975 1.255975167901613
58.121624148267614 82.77468771468301 1.1836079551919432
57.69811645932197 82.90397029615148 1.1828221197958446
92.99754061142 84.9085573497343 1.4782286302189334
92.02537327714178 84.72278948173826 1.4701855530781989
91.0162588758511 84.68189970981432 1.4624318054959682
52.2962305920217 86.71244266007089 1.1599892426274265
40.614844567812035 87.37792966768141 1.0626235793843044
39.77095569383549 87.48617737298837 1.056210669682843
38.723623082645894 87.71218195191449 1.0479691957951578
37.738149992545594 88.03152087648698 1.045806902631943
90.68943520142972 84.66982712748751 1.458086104961271
89.78033391098451 84.64644521949602 1.451912070509882
88.91864211242219 84.63029899647474 1.4444413432608831
87.70903688330534 84.63072759224647 1.4346368500367541
86.62494603727845 84.63906758234276 1.4267406728428418
85.69269542927789 84.64809877341648 1.4183565664549835
84.48180040710173 84.68479796956427 1.4094237552526547
83.49918576893359 84.71044795743741 1.4006597485293626
82.44646624789715 84.75731990794851 1.3928825709282076
81.38357965263936 84.81033535747439 1.3844532880815827
80.36005324916452 84.85613913567735 1.3755122813113898
79.19445173517974 84.91793450441891 1.367229485828671
78.03249360012659 85.00286026463537 1.3590761070246173
77.27391337477196 85.03517688508835 1.3498204016499395
76.45391185077344 85.07052866978594 1.3413137107412527
76.0185085201814 85.08983131098603 1.3358859882471672
73.8447231858567 84.48959388375775 1.3234549134195097
72.72755314385155 84.53929849140226 1.314770020101469
71.45310890549426 84.33885539343727 1.3045690729396306
70.88690273941467 84.17808956361006 1.2993319290911012
60.25257371915713 84.67166799852494 1.2162362519854044
59.7587642086841 84.94446434303863 1.2128172345491635
58.792445900215284 85.2410835128946 1.2050545991103425
57.98682042859724 85.332874841402 1.1973390640389259
57.25997150237829 85.28987527664289 1.1915161237314242
55.96481528864443 86.21549993178252 1.1778424230984856
54.79669640583671 86.26257068904346 1.1710351373889292
53.60395807023463 86.33901376779585 1.1642941478479636
52.491146304111616 86.39313113716592 1.1560315234445029
51.42594134659424 86.45438891938856 1.1481320752283353
50.48863519398782 86.5060983360567 1.1397831673587049
49.424975114442674 86.56073969963316 1.1305532691266087
48.28608492116604 86.63541496914009 1.122324343345583
47.25743100944241 86.70349782884024 1.1137692519425857
46.17808311266451 86.79024780310888 1.1057104414490289
44.83568660641565 86.90175025915727 1.0965475607365194
44.063876590814886 86.98144390570926 1.0888558242922
43.08775191520445 87.0848254862661 1.0807984023588353
41.92467109674848 87.21199480454841 1.0720532809231942
41.34868899130748 87.30316751280174 1.0663048349293445
73.65079452744939 83.17953132787491 1.3206803783964802
70.14775088974444 83.77411424387255 1.2941283305526083
69.25006661973572 83.54486521616859 1.2857579889684994
68.30550614898138 83.86000524408556 1.2783594934005031
67.14222073502293 83.96431556639646 1.2696952659356697
66.11775845594842 83.33735081134695 1.2607067557316678
64.9053537066209 83.26539830929485 1.2507431930872759
63.94639118933591 84.02118030991574 1.2444690528492082
62.87930961922293 84.21624100435649 1.2362180568453744
61.87745622192282 83.93872080412189 1.2271158376370555
60.76367745247157 84.22825145553016 1.2195744501557388
57.59424731386605 83.99556715783662 1.192469650654296
56.86657460125389 83.92721478857217 1.1875220477642412
73.40158274440446 81.65241899839316 1.3172701203003907
56.926537385472656 82.36130753845408 1.1856492662283842
56.381818783506944 82.49979575173246 1.184171289347289
91.91779842684579 84.81976670083375 1.4812896970404996
90.89673341896119 84.71290085925023 1.473349628929882
89.88910823916638 84.69635022159538 1.4642617603000287
88.55182646999324 84.69331973193187 1.4583963589994873
79.47506806021966 85.26542078891973 1.3874827856672924
78.95970175378469 85.26909228254698 1.3799116241826124
78.58682291197181 85.31998741357515 1.374444587889172
51.30801495042058 86.75361949094686 1.1549413742185646
50.36767970244313 86.81568629732149 1.1501807421634291
49.089468129162164 86.9612464452884 1.143823537928662
48.10820745875394 86.9758583528732 1.1387676982477615
41.16597135309473 87.21045773290696 1.0846189469266325
40.39102663400737 87.28036136784945 1.0760019924541742
39.65928995449544 87.36956637530363 1.0675279525238466
38.57281758028114 87.50941056608625 1.058471118042618
37.584002009134274 87.66514353187134 1.0508596102254575
36.95596379683518 87.92133883169832 1.0469324194032248
89.83248387493391 84.67389170458321 1.4590256991882096
88.87996734124344 84.67045097738855 1.454902589577311
87.5572861903871 84.68694368316241 1.4462253565203196
86.6194958309489 84.69793381709201 1.4381417241072076
85.48399548733767 84.7362389585955 1.4303568651745537
84.50594094139464 84.76120603798933 1.4215179731541427
83.29399624578969 84.82382469589413 1.4130827375990882
82.2348602814264 84.87597560360818 1.4042136208573466
81.2083375022435 84.93417977722189 1.3965959526168503
80.20670176322609 84.98368537966661 1.3885233361168603
79.19839721968484 85.0196782947569 1.3779496045206245
78.47608012308447 85.03935238675331 1.370207876702711
77.13583724079623 85.10892971454781 1.3595350877329435
72.67068741561269 84.43892242766887 1.326610286708567
71.39738459389643 84.59207517986023 1.31752950664255
70.33932497479265 84.43111060718668 1.3086084571500707
69.7765683462681 84.12171679362447 1.3025212188861401
65.87062735284815 84.22743276805787 1.2780015167413392
61.69907748334519 84.45416791784862 1.2443337364614986
58.53829301468863 84.9698373629576 1.2154752669411961
57.62178774737987 85.30808358766257 1.2076246754583584
56.68606435109122 85.2207163320547 1.2005898135991468
56.04312610150141 85.37783519808701 1.1946908919715082
53.044308996597024 86.46580318449256 1.1679395343301997
51.509162752731136 86.54931093650129 1.155295184618069
50.71307444781126 86.57084420370713 1.1506134947360807
49.42705565212455 86.65229634308183 1.1423070124063743
48.14080315482589 86.74552169842215 1.134134202271719
47.1348656003668 86.80239084323621 1.12611419358157
46.12052200935713 86.851903223699 1.1171476863960426
44.8793080049789 86.93315722653233 1.1086118107332212
43.880909054444594 86.99944085903964 1.1006435596365527
42.814943928551415 87.0777811357244 1.0917290000884141
41.92383325594253 87.14882929309677 1.0840406991446576
41.1411483061786 87.23314431850073 1.0752710710060622
72.43283327201986 83.12575786410143 1.3232721804820542
69.07719737489838 83.75389704260175 1.2977126122700007
68.08412746433669 83.4724503716478 1.289036046990969
67.10080847527263 83.80328923864384 1.281384218812002
66.13350024091247 84.11764515731592 1.2732518665898207
64.89399556940165 83.62813497139234 1.2634694084382754
63.678973770686866 83.52030198749168 1.2543161582783358
62.717412410586846 84.2243233434919 1.247668620112754
61.60576712941684 84.17233942246433 1.2382447197094086
60.542236136471665 83.86541790422997 1.229577006243362
59.46638179277765 84.19395400420545 1.2217383483426558
58.78710605244207 84.56496236341825 1.2189390978842845
56.25501323330022 84.00615299799189 1.1957495211061453
55.654778929000244 83.89599143135445 1.1901075105438856
72.13548024310914 81.4178754384487 1.319500827813599
55.69102217743755 82.18250661837531 1.1885290843033378
55.33695786495133 82.19780275118327 1.185329712176553
71.94292591617274 80.49501217647551 1.3183935705786927
54.992466272882076 81.28143669453739 1.1854695820922472
54.89289292099702 81.32881823800125 1.1841112154446354
90.785490007988 84.8215606720481 1.4847683655669697
89.79102016733741 84.74628351332723 1.4762018581893555
88.63772702213463 84.73301790795108 1.4673862131052893
87.54310635441158 84.74746875208949 1.4591530306997056
86.37288413518473 84.78398266223121 1.450537222378844
85.1688088469498 85.02289170728665 1.4424654932722547
84.19887991472707 84.98832570595619 1.4351504432906892
82.9957146628876 84.96104657963144 1.4253219311051974
81.85436582724104 85.0512865734724 1.416754648963403
81.05069531252857 85.10277594661332 1.408697865285503
80.24911705649167 85.19236499584595 1.3988751955648007
79.80713692930817 85.29027001876095 1.3923671818436254
47.243765386494466 86.96421662383507 1.1342772656728666
45.8806845305506 87.03233042188015 1.1274133117334841
44.99062400299157 87.08312069731154 1.121698186189909
43.79044483822048 87.09684753061627 1.112182528774563
42.73053647426508 87.15301406913686 1.103984537035137
41.84550233254088 87.38804685458048 1.0968492533101175
40.528432283919564 87.27704588517071 1.086382506074146
39.63704540467646 87.3364526960788 1.0789567655472936
38.414167289483856 87.43683701893184 1.070222394553176
37.40061428759574 87.54754019487402 1.0621737152179198
36.343835789971735 87.68656233446879 1.05422332789597
35.47203015462683 87.90551463377759 1.0492834169587293
86.8769339459041 84.7315009415789 1.4484641653468153
85.81234903857889 84.77581813576091 1.4408802008103474
84.69845837547942 84.82044826074875 1.4324693841278748
83.6131108614792 84.87635789242208 1.424068118827884
82.53144817628986 84.9314198860446 1.4150458417361957
81.35276361467646 85.00090513917178 1.4064529564822719
80.56072312260679 85.03868264498382 1.400008942115815
79.87333917880146 85.06754369040573 1.3930257667249486
71.32048594764515 84.41840078849256 1.3291077710060788
70.1908305836926 84.65232648712853 1.320329134149944
69.19651156225085 84.44467575358173 1.3115748926806632
68.34999186038442 84.05114472633056 1.3064663174549465
64.75193824679154 84.27600711737023 1.2776714450936049
61.151227929999365 84.47162778104932 1.2506136838663715
61.094178146756704 84.48562727228314 1.2464145256693504
57.31820994449727 85.04958755073689 1.2171868498444363
56.358489812732486 85.38532650248025 1.210272879913222
55.488111292959914 85.28457857335655 1.203933732704124
54.76179835234355 85.42350408714431 1.1978096531329927
47.13388928822114 86.8520612123113 1.1327009295702046
46.27654716119105 86.90953340946996 1.1264941492948053
45.54202001291617 86.95049120845894 1.120589728605323
44.26380519945098 87.01971874270606 1.1103305287962086
43.50022394379495 87.0591833918473 1.1038539709005972
42.485049488105346 87.12065608517199 1.0955803808244613
71.08721135173587 83.05998758405444 1.3257931487948171
67.92642427121712 83.69738537580614 1.3007482766174903
66.88488069933943 83.41381774465125 1.2918992354537155
65.72628845229465 83.76473637073192 1.284251749072086
64.96050482648916 84.19157874089636 1.2761402654972092
63.69489822768186 83.8236192118875 1.2677674887549666
62.57145525772363 83.74461264213465 1.2582210218530996
61.93637896495072 84.24236160908423 1.2531827200539989
60.354251373611014 84.14602250570077 1.241344734577479
59.463607879484535 83.81688523258926 1.2328491655607214
58.32397636030421 84.10156977751562 1.224456244592795
57.55061142832923 84.52823145166589 1.2211225149350877
55.08626270651568 84.07416735066842 1.1988144426093186
54.32051070402487 84.06922796668641 1.1938370464085601
70.99862852454751 81.48353766259446 1.3224419468764685
54.48929093381851 82.31642588255427 1.192386247185235
54.071404357788964 82.23188789073689 1.1879720640718945
70.69454095019861 80.1123505760652 1.3199626659794446
53.9713626479886 81.07962421349794 1.1877083761906664
53.58872923219184 80.85046115651474 1.185027540127323
90.18549714220737 84.96875849393192 1.4926563148208745
89.69730071409069 84.86569039505886 1.4893575087313982
88.59591957765053 84.7951528774033 1.4792742071973435
87.41309606882487 84.80829274341096 1.4704315322140467
86.37635945108734 84.85164095083604 1.4624571318755297
85.24542908169005 84.91997129527233 1.4538181863115047
84.09503077339552 85.25611764190307 1.4452438841604467
83.27339206821978 85.16204999359014 1.4374019876590223
82.38264247297808 85.08499029737548 1.4278349120397476
81.76711807571138 85.14708019002023 1.4206643114008801
80.31371245562136 85.17057846716028 1.4126567966111045
44.573426303350715 87.10763189149316 1.128398016654044
44.74126330573834 87.20772686412226 1.1270656480716563
42.89702696948734 87.27140739330878 1.1124157188490533
41.88093272886859 87.32887664772367 1.105814475197937
40.75185138949434 87.65440111511671 1.100113095197924
39.41611924223165 87.45945336302952 1.0913267551845358
38.361880866290136 87.47219961788261 1.0810497813691928
37.30369349536698 87.53185913114119 1.0732644361922572
36.18778820010449 87.61625441936144 1.06533809781108
35.158177950468705 87.72449649113342 1.0569828151501222
34.44327056536578 87.93659123166935 1.051513917828153
70.02810100738166 84.40302459841085 1.3313929536451146
68.99528444462685 84.72266813955979 1.323318457326073
67.92668816696984 84.43026337925701 1.3143208330834761
63.65766648965406 84.18620878274513 1.285219573808559
63.64073542830492 84.36090721413329 1.2803776565246847
62.5958949808387 84.30533040324269 1.2756250309871116
60.35014477102165 84.53724713785358 1.2537462130095203
59.654592524639945 84.49487376255583 1.2489477476925557
56.114241855172004 84.97660772608286 1.2207192935489148
55.1420226789663 85.45114457763054 1.2142228776988933
54.24992225740421 85.3468185965012 1.206957465578198
53.471961803713604 85.37089437170397 1.2006364174405406
69.94927076017807 82.98693181686451 1.3285559257248893
66.77175955161975 83.96569245745404 1.3104958993875468
66.79226985006073 83.64477253872376 1.3035004618780621
65.56419521502087 83.38427999941861 1.2945774727119255
64.57220790017509 83.77353873341919 1.2869483246850861
62.46628205390684 83.99975023927028 1.270268597558986
61.368160544174614 83.99912817953582 1.2621208836010613
60.99305122366766 84.3261323944998 1.2570048570321628
59.168118774516984 84.15998163705346 1.2441759074369942
58.06870432673732 83.79397290372471 1.2348364169284836
57.02320537467874 84.04199702172312 1.227351228708291
56.48794797500993 84.49493621968156 1.2229899390564831
53.760338217837706 83.93843505207224 1.201268586117788
53.20581555015248 83.95374173994169 1.1959926605042297
69.74508749681428 81.3547134366913 1.3253668380038668
53.25529597219732 82.31881326034791 1.19540048052923
52.70790648414126 82.14695934226853 1.1906472145746785
69.29400944997857 79.34971096926215 1.3232614609342908
69.4629415326001 79.7741040323141 1.321628872733281
52.79067376630137 80.71210154389212 1.1894125241746059
52.55035952872858 80.70724333107654 1.186277019076119
69.10060640205921 78.8328701878903 1.3222562899484769
69.12551073295893 78.55235894689108 1.3200139749708515
52.19591689038295 79.66657822462034 1.186302454228528
52.184740300940646 79.53690988213164 1.1839155093221592
89.30945999482101 85.0317766074082 1.4948177171173629
88.33547712789118 84.90264362326803 1.491538954701788
87.12081494513593 84.8928004217729 1.4822867397290653
86.24484836999864 84.93730968358358 1.4740761855490412
85.29243210630865 85.01852192015326 1.4657925447785856
84.41170143639093 85.09521985474689 1.4572850968001028
83.58300421283786 85.15191161292817 1.4482576360092516
82.6987337247302 85.14563266108172 1.443057685156602
59.137865677077265 87.13403460823034 1.2660748760080445
40.19179504163821 87.49102435028348 1.1034842234598043
38.4467836978611 87.62006398372692 1.0903866377371674
37.384112894860834 87.69176146486839 1.0840944680288356
36.03981307492818 87.72680307825267 1.0763311849648374
35.048366041391375 87.73694009547748 1.068861901282879
34.04177240269412 87.78933025452656 1.059726979285017
33.463287207696354 87.94550153304493 1.0547320658758288
68.82761326801219 84.48930797758538 1.3345630171473652
67.7966945246204 84.81436983951313 1.32674631554118
66.75472630811036 84.43099732228549 1.317368558619461
62.85823586395387 84.21979478530506 1.287601029607798
62.511197917006285 84.48823721239204 1.2839262797623028
61.382134731091845 84.33598626888856 1.276195898922143
59.56830417333313 84.40012608626631 1.263527810135832
59.20994167052769 84.6701790371499 1.2576476215346433
58.51230674290418 84.66047265710401 1.252420958485991
54.77159448207668 84.92970936712115 1.2231163227376214
53.953484387259266 85.5489400875589 1.217190833004141
53.02814661300225 85.33139831452874 1.209450037471442
52.31448331085964 85.4173227801948 1.2035717329002869
68.65289581103958 82.95901105196978 1.3314116835255247
66.19274747647539 83.95392657652738 1.312304491806126
65.46883570876342 83.59499139770854 1.306468900442535
64.23921291393354 83.383080162251 1.2969638661072354
63.36632024942349 83.82481989811392 1.2899584685924743
60.98668200254137 84.1659478794009 1.2715544829807621
60.37268424066738 84.18612624178404 1.2653891195535352
57.833274849842915 84.17503260839634 1.2468245294414313
56.790811450617355 83.79445606392353 1.2376749163712604
55.857899820265516 83.99887388211408 1.2301645490043536
55.19591565094811 84.4068045700404 1.225763903485011
52.58686919828253 83.92228517657539 1.2038165020740037
51.82724614691204 83.89798799869858 1.1990283164633413
68.51051855016951 81.39215649982766 1.3286241258825344
52.15584301658501 82.28526411742554 1.1978135533944292
51.56296882357329 82.16675958789773 1.1932496677145625
68.48128573539859 79.52578858327713 1.3259939111862735
68.23687519662627 79.72413299943283 1.323333031540805
51.6378416547222 80.5993728251517 1.1919770286212752
51.09591777186282 80.4901927481002 1.1883119141108478
68.25008433395205 78.28621490982967 1.322942116290757
68.05068081222751 78.11396431040482 1.3200077289062881
51.260312544987556 79.44889548041355 1.1880590720440027
50.90797339773985 78.8914546727184 1.1846203149474062
67.56733205563329 76.8953241145692 1.320163301343716
67.54869448612253 76.98143105303302 1.319167329665249
50.38115742611219 77.94817811364224 1.1824733211247063
87.17745747041204 84.972645841996 1.4945665780832786
86.02153059604692 85.00715096093353 1.4852975543478786
85.06995765482091 85.09831353435563 1.4774727554417013
84.47385407141577 85.24721147274457 1.473246970458918
58.41328675038338 87.12744028746451 1.2678298344902341
34.82769641377836 87.85835686071243 1.0788319423449728
33.80063458988857 87.86356496293355 1.071779399450177
32.72965397736133 87.87315591721806 1.0628581842075733
32.2078665021307 88.0389901811339 1.0579760105530247
67.66326880088546 84.47408804101357 1.3379211725613722
66.7646504963309 84.8843383249952 1.3302988330550334
65.49690492677738 84.38941929710714 1.3204145062281287
61.77426707133202 84.23932407530329 1.2912016662249424
61.3239761954032 84.62653526807412 1.286756324202935
60.23248364851722 84.46131891775254 1.2779777246257005
59.07505354741235 84.41829100242713 1.2686812768367788
58.22293628514916 84.77475095364899 1.261070951716127
57.130513820816304 84.69941764090183 1.2548315637449112
53.50606499284808 84.9933804536761 1.225118227473211
52.86836647753587 85.59637222198387 1.2203671351834822
51.7075913008135 85.29493845446804 1.2121178139944129
51.0805600422408 85.45114188362498 1.2066421364352482
67.50539528797664 83.00354608815267 1.3346092625865973
64.8852068136209 83.9281879150216 1.3154010486346535
64.26511354463196 83.57844223660776 1.3093033425025202
63.14714009666338 83.40179516151916 1.2999431199655245
62.294096364896 83.81520543995339 1.2935732251704948
56.561263088159336 84.1545219279223 1.2483374543365844
55.63454655035592 83.84512215408391 1.2412571192200883
54.630331223874556 84.01410584327326 1.232563010134088
53.8831588977817 84.39694038021474 1.2288229600606964
51.33458998256752 83.92524901679826 1.206637483015835
50.63491012374327 83.78900766935588 1.2014522832287602
67.08993804763975 80.52497862834262 1.3323431010992748
67.31761276972608 81.3074080564877 1.3308319479832074
50.78426416828084 82.17695166513226 1.2005437575992033
50.35030049663612 82.29259494997308 1.1964937933719917
67.4354498601677 79.76055223062211 1.3294395325563466
66.87451321914445 79.76203708242305 1.3258010603316848
50.352453837598745 80.53377361597653 1.194904540813266
49.95661890340635 80.57278196034054 1.1909696833258407
67.11425538836558 77.98526043640823 1.3252740562291232
66.59527085461278 78.05165691505921 1.3226553861787678
49.97099049451876 79.45271882003553 1.1913840484662006
49.65167305091978 78.79972946065433 1.1870869176704804
66.82549757333797 76.56047101601783 1.321744737083638
66.49500769560598 76.52319781682374 1.319862303414332
49.32728777676773 77.50954263831066 1.1832862301459601
66.13574504194489 75.51413709479411 1.319791079163286
48.562534413387695 76.26223087574387 1.1809721424568573
86.0016421189072 85.0373596370572 1.496695909930163
84.9026278701941 85.12194667877793 1.4889118260444993
83.93905322566984 85.2276654622955 1.4810453915401074
83.41294571458894 85.31722804968507 1.475943677155259
57.25646555472821 86.97692272994954 1.27027797806255
33.94968087798141 87.95375641882231 1.0814545444419144
32.7176904094169 87.97700858233338 1.0737451702307241
31.575368352080858 87.9883453521245 1.0662988666479363
31.147205480577064 88.0785989893648 1.0610761191165166
66.36335807294081 84.46113604762891 1.3410244973260899
65.50687076901369 84.93049265020706 1.3336194980820366
64.37911960362312 84.38614071939614 1.3230167432111077
60.702051632112514 84.33999630758917 1.294258851228647
60.017300589636456 84.66254447232045 1.2900705855682497
59.098088422931035 84.6142002526619 1.2813274820663678
57.791875551541054 84.59130534419693 1.272395537067356
56.74361307100892 84.8374855924438 1.264318988581588
55.74311160230665 84.65020908023214 1.2561457421444882
52.344777455726046 84.9129380635392 1.2284969618604193
