# .PCD v0.7 - Point Cloud Data file format
VERSION 0.7
FIELDS x y z
SIZE 4 4 4
TYPE F F F
COUNT 1 1 1
WIDTH 818
HEIGHT 1
VIEWPOINT 0 0 0 1 0 0 0
POINTS 818
DATA ascii
-99.63333686798572 -126.53464786304296 -1.4995928873015274
-106.52220583039106 -126.59943091357326 -1.4928175805900248
-100.96730329867925 -126.47995700765001 -1.5069214160040956
-107.14456262993318 -126.451987883948 -1.5008780361703988
-102.23514982976576 -126.39634952281818 -1.513344924892008
-101.72146993495497 -126.42221046093078 -1.5111311205832827
-105.93940242526699 -125.3948788942307 -1.4612443334092222
-95.28829271834373 -124.96465419561707 -1.4873943295516943
-105.91900143126591 -125.1612612093756 -1.4641918643289251
-105.7158596485153 -124.9761063516612 -1.4699525457769371
-98.14301414320661 -125.16342405439588 -1.4932173176701709
-96.90597062606108 -124.88012953408419 -1.4907435525509674
-95.6908040035037 -124.64780359390538 -1.4880769785746182
-105.49696653031432 -124.95969706527947 -1.4744809156646606
-105.45170781151576 -124.96662502530322 -1.4793334158898286
-99.15790033314477 -124.90787528720631 -1.4951094962772242
-106.23736693785553 -125.00044746948285 -1.488373482143463
-100.62385537423569 -124.84266136953968 -1.5025185572479103
-106.84206201695902 -124.82657011686442 -1.4959317055444543
-102.11485408999762 -124.75763097683014 -1.5097751937069046
-101.41695607990054 -124.61434103602917 -1.5066885732074902
-106.01252070297046 -122.78854764800512 -1.4525708958734653
-105.98067069737593 -123.60663494238838 -1.4552212111007137
-94.59241935555323 -123.21146392443424 -1.483668320100447
-105.85733697976309 -123.26077156365182 -1.4595149018959719
-105.55233803644347 -123.41596773498769 -1.4660570151115455
-96.6271399870483 -123.14883046148915 -1.487109365335632
-95.30379469225441 -123.22494461939876 -1.4852650097212623
-105.28661262906977 -123.19325992070513 -1.469969101006435
-105.23805552105205 -123.30680307082216 -1.4758489094716187
-98.83470856449398 -123.21603671981235 -1.4907354009097176
-97.7113111999429 -123.19300209056121 -1.488599325430404
-105.93557006509386 -123.17558213403986 -1.48376973346635
-100.38452144343323 -123.17370786085725 -1.498525615274861
-106.53710014588553 -123.2059807825304 -1.4917556881932477
-106.60617857352679 -123.06874726077118 -1.4957985297399994
-101.8924790684591 -123.07620031536607 -1.5054975883251147
-101.13383494611358 -123.03092726433708 -1.502453971989676
-106.0215874559204 -121.87523115143415 -1.4495860113566439
-94.00547751371047 -121.7113929741234 -1.4805241674521201
-93.63741380990274 -121.07845490990333 -1.4787649537005474
-106.01766580908856 -121.32424307310275 -1.4498023198137466
-105.79719182311044 -121.93219729511638 -1.4559688232252985
-105.37196300440218 -121.7517015204497 -1.461829882246925
-96.41051648140771 -121.60117561012504 -1.4837068460813685
-94.94478891734309 -121.50309105516774 -1.4818416789843047
-105.11273637314004 -121.64933970139937 -1.465729494322416
-104.9903523778409 -121.54629861409026 -1.4714389091574727
-98.48259777265807 -121.56500538200842 -1.48648298929417
-97.34535612385633 -121.70315953604305 -1.4849639989108672
-105.68166348224433 -121.68408598605431 -1.4800662884372915
-100.07063605003259 -121.38738452373639 -1.4938232258245552
-106.24045445481815 -121.61387496085665 -1.4879112995024928
-106.30926824232971 -121.5430372139375 -1.4921968370394219
-101.61200523804509 -121.49144015427933 -1.5012714375183114
-100.88083578915743 -121.43861415693122 -1.498325234877883
-106.04748439255668 -120.36409327193618 -1.4446179827971009
-93.19422417314644 -119.92656077155557 -1.4763084018850623
-105.97940758046005 -120.24686544950721 -1.4471663464308007
-105.58191865422711 -120.1781118774849 -1.4529975636737322
-105.20034465808646 -120.26700582996577 -1.4579564634247304
-96.12334809357714 -119.96244609424937 -1.4799534669041468
-94.68169866977631 -119.97926738858862 -1.478761007057394
-93.66731434897693 -120.09702442492866 -1.477792421049407
-104.95001757883703 -120.2254015928089 -1.4616520636186856
-104.712959196185 -120.02398002494598 -1.4671785580348147
-98.16509961640898 -119.94861873574644 -1.4824830678242729
-96.99637828492268 -119.92965783731348 -1.4806559251994145
-105.32596904043446 -120.03625292755662 -1.4752425820889057
-99.7498396138894 -120.01309507273437 -1.4897151262998356
-105.91344103067848 -119.97981389708713 -1.483249842173533
-105.97729690331761 -119.79916666752766 -1.4876094150104386
-101.50459225651927 -119.76796992282927 -1.4971759374267877
-100.575697823266 -120.12940589106033 -1.4943838997336394
-106.07067866380014 -118.51168266295814 -1.4384337012302382
-92.6198882239467 -118.32419497562941 -1.473019028412037
-105.94320001540294 -118.3972705476732 -1.4417593750413347
-105.44688471497356 -118.56516891222262 -1.4491917491889816
-105.0872684942567 -118.76965653681495 -1.4536987902331386
-95.71656683372673 -118.34759923707878 -1.4762918916135348
-94.60800855965016 -118.31808061352925 -1.4755439157335457
-93.12644217548115 -118.21687088579233 -1.4738433197080874
-104.79439441171363 -118.44892382309959 -1.4563483779422968
-104.41395091611436 -118.30516919814718 -1.462228266825215
-97.85011705206459 -118.22839217438731 -1.4781120028429056
-96.5120134520378 -118.36521534321466 -1.4767563444349323
-104.88897410838464 -118.28387775746383 -1.4696523308147529
-99.40580834165478 -118.33250232045098 -1.4848349126644311
-105.50289462825418 -118.29929754682557 -1.4776191105761998
-105.64616931568254 -118.20766466162988 -1.4833932271324999
-101.18627636678178 -118.16942290297648 -1.4925883578478232
-100.2961953594366 -118.55008006478627 -1.4900049296802476
-105.73376128264653 -118.1522898722348 -1.4886439133971519
-103.47140767218245 -117.31030997176646 -1.4988836196790107
-101.99262638091619 -117.81932308420865 -1.4937422887813276
-105.94331690666279 -117.72407427622768 -1.494587110726764
-105.53971310117086 -117.75388237787827 -1.4991288705374657
-104.42029686019231 -117.76602753500953 -1.5012516588727156
-106.0893199595724 -116.56972040829291 -1.432102069965637
-106.0761949088746 -117.47943955289524 -1.4350903615723103
-91.9797857272901 -116.6714637153467 -1.4693988306046522
-106.07583461222531 -116.34452021655784 -1.4326008956374718
-105.87618918031498 -116.92145799330876 -1.4379084314836899
-105.29797923993424 -116.92536782177405 -1.445146306633582
-104.67937260629003 -116.09301258343868 -1.4463559413858489
-95.29413013419483 -116.38034822421345 -1.4714381276958433
-94.44280112073328 -116.76017586788804 -1.4722299585443108
-92.80419308382419 -116.54691575825176 -1.4704603247136967
-104.89263452049211 -116.61747398651404 -1.4480557552994866
-104.57126409980853 -116.84137052172254 -1.4521227706758975
-104.10811188616236 -116.75213979667333 -1.458714561621335
-97.59053321985039 -116.55310574986058 -1.47358924945515
-96.22599159268944 -116.67397128690182 -1.4727554346293619
-104.62400327794371 -116.75709346208421 -1.4663283591727878
-99.08234244036743 -116.61204130537334 -1.479888293259473
-105.13787029662271 -116.56860270195729 -1.4732342261841922
-105.32403538424178 -116.71659649364824 -1.479054852905902
-100.72811532923464 -116.56369081683994 -1.4874563690398699
-99.79449946000902 -116.23446551509662 -1.482952886904583
-105.42415384863223 -116.2796424001999 -1.4856260018649556
-105.37486281252939 -115.82025910061657 -1.4892332973742652
-103.23630093874242 -116.19846002344178 -1.4952386430852094
-102.16459531477459 -115.89430091871789 -1.4905883499910013
-105.29348992513552 -116.65322715845268 -1.4953778555843629
-104.25661806255957 -116.55505957775512 -1.497386266422588
-106.0945366541847 -115.33217800284979 -1.4285612209393026
-91.53734983400751 -115.5139422939346 -1.466860637660047
-91.21765840969923 -114.8411042258618 -1.465147383920056
-106.04119373601462 -115.2507729474209 -1.4297177444721494
-105.67978346134012 -115.27538409077691 -1.4346810963397225
-104.82250187177709 -115.25682821771281 -1.4402255667037336
-104.14397027380467 -115.19437050101544 -1.4440549821827735
-95.29570705154153 -115.155357150619 -1.4666990142049037
-93.96213089228203 -114.90964024138525 -1.4671929347815909
-92.40882859398894 -115.14210385722447 -1.467380281864218
-91.369785819116 -114.47757506939621 -1.4650457494110227
-104.56811209933966 -114.60627084455217 -1.4423785815618286
-103.95345397344695 -115.17467905941096 -1.4471499195296116
-103.71951876907694 -115.27035848863652 -1.453755918321791
-97.22395221560606 -115.01711525971685 -1.4685889759156319
-95.87167664751439 -114.80285965298253 -1.4669357744876663
-104.32970091430221 -115.1805524161419 -1.4626714402632186
-99.45370228936477 -114.63109272806054 -1.4780707236382302
-98.83153455946243 -115.08724725449811 -1.47572364316285
-104.80939856740449 -115.08884080739901 -1.469231197269619
-104.89789543556527 -114.94431298527462 -1.4737742754087273
-100.42457934761016 -115.04955310717416 -1.48297438163463
-105.07713387821737 -114.84470552051225 -1.4813632615599257
-105.01090940274943 -114.59338882210982 -1.4856784489458745
-102.95571270274496 -114.78253498746034 -1.4905427341156399
-101.94876900840154 -114.8942881523391 -1.487512148072265
-104.7664180106492 -114.86765826607223 -1.4900488470816435
-103.98143596057417 -114.95835879438887 -1.4922357058376088
-106.06594567676785 -113.75822784280899 -1.423067440130323
-90.82426908325733 -113.4400923569346 -1.4623828416467253
-105.96552414970365 -113.61578284359267 -1.4252570114424505
-105.47444806857645 -113.64445286905561 -1.4305343882703567
-104.61122479303557 -113.5849453655512 -1.436047956888584
-103.9435176986529 -113.35583331494567 -1.438537372105688
-94.84971909108951 -113.25435164645137 -1.46176366166788
-93.7626000665804 -113.36488301135637 -1.4631577463241787
-92.01817809667148 -113.3202733977845 -1.4632783489531545
-90.94831631109683 -112.93747215410816 -1.4617085525422655
-104.3532077237596 -113.52861414708012 -1.4396013558625196
-103.76100081162461 -113.57929477078397 -1.443147910613544
-103.29749877393598 -113.34655817976083 -1.4487614919469445
-97.00590519778514 -113.38055326013804 -1.464274959739006
-95.6409006587862 -113.32572721454675 -1.4629751712707888
-103.86437872327414 -113.39428465159514 -1.4566096415647225
-99.18759931833208 -113.31294380940697 -1.4740695617610458
-98.4697401636928 -113.3150358925105 -1.4705804803091942
-104.36951997386618 -113.3989280987077 -1.4639545188833418
-104.49902259992277 -113.39715842822429 -1.4695067000975586
-100.27206929724056 -113.20802948996256 -1.4780069202142447
-104.61076799631414 -113.23721272407607 -1.4757831744562036
-104.5560502446216 -113.18556057418115 -1.4818527841994726
-102.80609579108406 -113.08060461021847 -1.485125364190347
-101.60607312838465 -113.260342972 -1.4824037032664932
-104.22174382135962 -113.27378839515012 -1.4854518712795974
-103.71438447496737 -113.1208655809647 -1.486029050706994
-106.03448852696312 -111.93616439867954 -1.4175710252638611
-90.148622540069 -111.88176080654908 -1.4585174930128986
-105.80232934521685 -112.09354646636986 -1.4217890775509245
-105.17590829685038 -112.05474046056484 -1.4269211967662137
-104.59235950334728 -112.05011819702818 -1.431261442413764
-94.52498477438746 -111.64798610431373 -1.4573112755419333
-93.48390249546834 -111.69000925011179 -1.4587389534635715
-91.87741407770933 -111.65550905501937 -1.459303733129098
-90.74587190416892 -111.71449113429183 -1.4591152177261282
-103.5972490838475 -111.73062831105408 -1.4382173624719816
-103.0141923350538 -111.86611363428256 -1.4459285254873337
-96.6983565561658 -111.88474812451558 -1.4600228562724902
-95.23042308267259 -111.62740783526172 -1.4581291360520694
-103.52220264591273 -111.7534734073391 -1.4527412995783613
-98.85226977657312 -111.67554500042775 -1.4690587854074117
-98.13925503831572 -111.66432153459108 -1.4656189081470437
-104.00172228264141 -111.92008596277742 -1.4596645933090249
-104.05422099037197 -111.73204492050013 -1.4645724090630257
-100.07111668516148 -111.70703860581533 -1.4735684034067331
-104.21058276097831 -111.74986014819616 -1.4716526318828305
-103.99110459750439 -111.54474439253981 -1.477091460135289
-102.61894751872003 -111.467608915082 -1.4797933227824653
-101.20082510661908 -111.52520890086188 -1.4766957245688772
-103.73687876345222 -112.0802638726365 -1.4820664866621536
-103.4828378988627 -112.22388682541829 -1.4830181339197253
-105.98313483542279 -109.76863776632297 -1.4104760285816773
-106.00772674431896 -110.73689376245136 -1.4136118937033584
-89.54766607946927 -110.07404920115306 -1.4545431654565693
-105.75633561080727 -110.33886707955287 -1.4159320211347828
-104.9576492340024 -110.3639916743137 -1.4222278335549123
-103.81641994574625 -110.26075545230002 -1.4279173448508748
-103.23281565927103 -109.95954631536459 -1.4298350757196507
-94.21379097185886 -110.08491111424738 -1.4532690010460314
-93.23792356170505 -110.12113112318684 -1.4545293881042467
-91.65465681469323 -109.99590169803355 -1.4551538644765363
-90.33765944961827 -110.12745686309796 -1.4554667297650614
-103.7888738276697 -110.8384856583306 -1.4325053567413863
-103.06785855536694 -110.24707004722221 -1.4335196937296002
-102.5982640488175 -110.21430695820666 -1.438163147722252
-96.2605504785206 -110.02632784273496 -1.4543173342510392
-94.95431522766418 -110.2137194362299 -1.454439491611702
-103.15196730193315 -110.24677279682355 -1.448334586936755
-98.41212458658865 -110.01315696493671 -1.4634665598520586
-97.67334125868088 -110.12249926641039 -1.4601794067189016
-103.47495029921076 -110.02567206599562 -1.4534772342964126
-103.60602195579669 -110.04813528406662 -1.4593126411080246
-99.7796361732572 -110.01749835571894 -1.4685435061692298
-103.70781207464312 -110.0121694324906 -1.466069301551342
-103.45696632514925 -109.98541804221954 -1.4727733538935446
-102.02397084996646 -109.9317900989427 -1.4742258124924417
-100.94118672593284 -110.20839822012564 -1.47254223341792
-105.91218208501014 -108.63018839080122 -1.4068983417886816
-89.12242281224967 -108.97375615649158 -1.4518139575314153
-88.74838438259515 -107.97997334225413 -1.4492737477289752
-105.91259040176303 -108.8291492745795 -1.4087914801857806
-105.54192408707911 -108.7372821911089 -1.412004949695885
-104.66887854599159 -108.76126025824334 -1.4181327951994542
-103.88465914847983 -108.63252578298895 -1.4229090945704503
-93.07372771173762 -108.50758556258829 -1.4507518208637291
-91.44875293572251 -108.39448834666335 -1.4510047217451152
-89.90349692627517 -108.43384299824223 -1.4514503638567364
-88.93055831443814 -107.88057875035226 -1.4496803721686728
-103.52594795638046 -108.99978684847292 -1.4270397981973695
-102.91515068275851 -108.51743914187638 -1.42951115271144
-102.30830735590271 -108.55008422334777 -1.4350485890806488
-96.33186188478902 -108.43743560476588 -1.4509556866650961
-94.61709411082396 -108.44878292379767 -1.4502969810765443
-93.6796179721553 -108.25557178992062 -1.449919672509289
-102.75747276418122 -108.50500094149346 -1.4442720884295337
-103.00304964960058 -108.16636468629677 -1.4480865965720138
-98.01280071326191 -108.1723564165577 -1.457701594142157
-97.36125652972558 -108.26728537516311 -1.4545248489692755
-103.23666351182477 -109.12277734411815 -1.4507244086708262
-103.1658952760181 -108.3627234084025 -1.4545299486017487
-99.49647436507976 -108.29985383916258 -1.4634182203185897
-103.3035201524656 -108.54344150311749 -1.4613992922840306
-103.05615946295592 -108.31939771565442 -1.4665337822230182
-101.42905879829601 -108.41362822973794 -1.4688660750823124
-100.63054560470786 -108.39464560332465 -1.467057075522219
-105.82023861645385 -107.10291397686653 -1.402336703005627
-88.42305190450084 -106.88579053185332 -1.4467532193278552
-105.75285068806608 -106.92228567642641 -1.4034267794865944
-105.28162483257856 -107.08619445190757 -1.4080010279502613
-104.3500668579367 -107.06856299141363 -1.4138850401294425
-103.62551048504616 -107.08203268444979 -1.4185891807521542
-92.54575108646462 -106.75157998597895 -1.4461445393973964
-91.18139139847591 -106.73952296006537 -1.44671975438584
-89.49610049003479 -106.94106966353884 -1.4478494411774974
-88.6430060272586 -106.52740990427522 -1.4466590080573667
-103.13407271602804 -107.0999789464922 -1.4220405178722137
-102.68213838773262 -106.96758040225997 -1.4242691275850703
-101.90186045633557 -106.93566925717516 -1.4316471851068602
-95.87389411811834 -106.79771289060126 -1.4457732589375922
-94.21341154811901 -106.95248075830375 -1.4461215080961722
-93.48930672390611 -107.35066462937773 -1.447518336467289
-102.32299438696913 -106.80273974731728 -1.4391357455750486
-102.60286126836786 -106.71277608223761 -1.4433207811772049
-97.81090686231407 -106.67024791604159 -1.4535615861752824
-97.02349701121861 -106.77892204676249 -1.4498449435615832
-102.7592481936711 -106.78407683269535 -1.4497405147952407
-100.17775011641419 -106.17305745359836 -1.4601613910297881
-99.34507858357617 -106.76038179575477 -1.459076939328527
-102.89003790667617 -106.9673482590105 -1.4568414006283341
-102.62161487165818 -106.6750084610968 -1.4609684854619618
-101.3128136864654 -106.63224507689101 -1.463572706644759
-105.70267739792375 -105.30478707905392 -1.3966222114666784
-87.87223041254775 -105.14789529997422 -1.4426464061645023
-105.61328506854412 -105.47923749986309 -1.399485658794867
-104.99542958333728 -105.42390295911758 -1.403857368408793
-104.10592290199135 -105.41664349539431 -1.4092657881441664
-103.32610334919019 -105.30813512611931 -1.4136003963982338
-92.2967903054411 -105.07073024595387 -1.4416020391503237
-90.86336820330773 -105.12105337362917 -1.4425103656952714
-89.29601526598113 -105.23450896807734 -1.4435845784033658
-88.2368938385334 -104.95611117703731 -1.442931871040853
-102.7586703144665 -105.11168222147866 -1.4163370627461944
-102.28592892820892 -105.29458312385239 -1.4200565455970071
-101.49711351775818 -105.27510379047355 -1.4270911171138885
-95.70261114309889 -105.19398651707034 -1.4413598206516665
-93.78241473907725 -104.98170547433439 -1.4405797514589687
-92.96258890823403 -104.41153717801174 -1.4393665016332151
-101.88661809512534 -105.21228761857427 -1.433947326960231
-102.0845920868732 -104.71955018323767 -1.4374992353518172
-97.36273785795744 -104.86461495053211 -1.4476088110441723
-96.7301860024675 -105.20397069982295 -1.4452171881942393
-102.31130969925296 -105.03433295252077 -1.4455993791189057
-102.17396803296684 -104.27386319333102 -1.4489822153791696
-99.96076967789568 -104.96390415192083 -1.456454252241334
-98.77897518156932 -105.0905441504893 -1.4532570980028268
-102.17833151528876 -104.99651616818538 -1.4553991040604952
-100.87078045589234 -104.95003497133831 -1.4579981264459905
-105.56787535704001 -103.93031905241654 -1.3927914994412263
-87.53717597387474 -103.77681118679196 -1.4393794263540967
-105.32811244083798 -103.77992866316482 -1.3952669345470319
-104.64868718709434 -103.8001848874101 -1.3997843452713457
-103.83691034263325 -103.79714057365962 -1.404643388639058
-102.88315493096252 -103.70967740215873 -1.4098875190801545
-92.68100224650806 -102.75884526391377 -1.4346304061434973
-92.17937037764852 -103.50670943381591 -1.4371213824558984
-90.68141834376696 -103.31987271576891 -1.437527333806446
-89.06568701871566 -103.43018030206518 -1.4388485061081073
-87.98738103609938 -103.45466909007583 -1.4392091618160865
-102.41257850267974 -103.44009885168921 -1.41161642645474
-101.96112385599632 -103.6459198133999 -1.4150415268969887
-101.13421216636608 -103.53719223577346 -1.4219783430860393
-95.16544182020118 -103.51734230702958 -1.4360941256415651
-93.60247542643097 -103.41421542721486 -1.4359582977904317
-101.47901672664291 -103.75492359260133 -1.4290601064348611
-101.75379469484585 -103.44603974655045 -1.4338643471069838
-97.10897860289305 -103.44937194820876 -1.4433997970436512
-96.31164706779255 -103.48590512503397 -1.4396444795239083
-101.89427229245632 -103.43389185439248 -1.440708680104906
-101.85995174301938 -103.20401723702649 -1.4458569820971565
-99.64863513814424 -103.54235670643985 -1.4518699719202506
-98.69513297077407 -103.38668268461129 -1.4487284886646095
-101.71396773908197 -103.52542556271064 -1.4511233514582185
-100.59972334081749 -103.34451476009116 -1.4528035985083914
-105.41679297023418 -102.65596601974802 -1.3890202423502258
-86.92353321107643 -101.74945591865458 -1.4339171628273357
-105.13329518700404 -102.14542704171836 -1.3902591840837812
-104.32874114882854 -102.18793281080937 -1.3954088537950085
-103.41051252739996 -102.03516886854028 -1.400278455405959
-102.53375263696651 -102.02957248954442 -1.405110048153653
-92.53381957861264 -101.97723342109471 -1.4323479989882681
-91.77257973111202 -101.85356335573594 -1.4324697194092249
-90.31233253142976 -101.74732523289813 -1.433235666151824
-88.88020029145879 -101.89009148152823 -1.4346470390645252
-87.52313191418466 -101.69551302019337 -1.4347227448677784
-102.16211038918338 -102.32946353760252 -1.4084967898450405
-101.65979482713233 -102.03298766953982 -1.410014381916968
-100.75704126463653 -101.9149718838764 -1.4167110414406083
-94.96209349056194 -101.8677166388158 -1.431598316894999
-93.19084836495774 -101.78768353647064 -1.4312309730773123
-101.07426996957747 -102.03225615032507 -1.4243317174504224
-101.29228214527959 -101.86312621175603 -1.4282442273154412
-96.76480996126261 -101.72343210059897 -1.4380464583902908
-96.16780732515132 -102.61584305460153 -1.437166840000787
-101.48802529757015 -101.88498540456224 -1.4361126981352081
-101.4041971835147 -101.66029002603813 -1.4412708257696605
-99.45527423820198 -101.86061789182291 -1.446702286627045
-98.34166991808344 -101.67160460410558 -1.4433976746766182
-101.12172228953126 -101.61303512134384 -1.4447310466739405
-100.32753618071303 -101.79419134170956 -1.4474470635739076
-105.54511095020355 -100.26081575673287 -1.3790957707823626
-105.25357725150536 -100.90753023667752 -1.382852529352196
-86.4502093007917 -100.62793593995517 -1.4314056679966878
-85.64802846616348 -99.94742282666695 -1.430385001093963
-105.40512337776217 -99.94142552398809 -1.3809755238679455
-104.90315110605303 -100.48352311657209 -1.3854054512646756
-103.99800413678082 -100.41856013089286 -1.3904857443870324
-103.15792222482798 -100.37674820570251 -1.3951830329655033
-102.25239255116239 -100.53374446377636 -1.4006578400021874
-101.69653542907365 -100.3836437745534 -1.4031037357725087
-92.28915881338837 -100.08143908913384 -1.4267152302428616
-91.3287954981933 -100.21593068100654 -1.4278672241844554
-90.02561994134884 -100.18414433827371 -1.428850073266323
-88.46485391049112 -100.26686281934656 -1.4303199999120295
-87.02315407462866 -99.95513840259922 -1.43032110571417
-86.08823602926498 -99.48246613961537 -1.4299474187452865
-101.13828719820177 -100.36997777380839 -1.4060322309243207
-100.39400190825975 -100.30191291923909 -1.411945735588436
-95.58344670410892 -99.9862755841994 -1.42898124728474
-94.43155210019452 -100.18368251115979 -1.4261368018799452
-92.97186872091295 -100.29830346197845 -1.426820456987096
-100.61479978091428 -100.33562624952243 -1.4188166348207933
-100.8580147072574 -100.17938060222214 -1.4234527648820978
-96.50044603197914 -100.15226088678898 -1.4334379497081438
-101.04651892237358 -100.19747627430215 -1.4311336818231595
-100.90457744597416 -100.12842072450157 -1.437139994256054
-99.1849022376388 -100.02184412321257 -1.4407429825996272
-98.02103320206368 -100.29375190017555 -1.4389981159526428
-100.5748270882782 -100.295668120202 -1.441124112762302
-100.14200365014062 -100.49986299677859 -1.4428454858545654
-106.38490526295851 -98.66824954378099 -1.3706526269983383
-105.93316998693572 -99.20846855323879 -1.3750197303122684
-84.95827069710911 -98.67122804112566 -1.4287715632005225
-83.95976413147412 -98.23454798261461 -1.428496773835298
-105.4647772879267 -98.7228145561078 -1.3770395422455866
-104.66955092103352 -98.93348705210668 -1.3809911255358633
-103.77741441203776 -98.84110658821257 -1.3857066591053606
-102.8586730223851 -98.78480038769713 -1.3905728440386362
-101.88579578743521 -98.78191414221146 -1.3956051177720876
-101.19413337467667 -98.57333106510383 -1.3984573540462852
-92.10530573076016 -98.71118226709872 -1.4226500667069106
-91.01633451253504 -98.57046252211269 -1.42313158533492
-89.77029528022183 -98.5444709268334 -1.4241676195898674
-88.2379883905522 -98.569524011646 -1.4256048745282115
-86.68654035142517 -98.51555657479508 -1.4266856372153085
-85.6688821062047 -98.4144790376019 -1.4277056355708697
-100.71241011022076 -98.63106151554608 -1.4012653727455413
-99.99806491495931 -98.65465232462948 -1.4070398969034528
-100.03266465023182 -98.168155999159 -1.4118409734758288
-95.25635817641145 -98.36041377944927 -1.424061331269712
-94.14338667160303 -98.62192835597511 -1.4215344092859732
-92.78948532512432 -98.48040232575299 -1.4213769784973325
-100.39988249769053 -98.48618444968652 -1.4182471119496922
-96.27247077989364 -98.45571859854321 -1.4286159223562744
-100.64150360852601 -98.66408323527 -1.426672422023867
-100.29657756865757 -98.57276217938643 -1.4329250217447327
-98.92457360970853 -98.41200766372963 -1.4352035600827537
-97.72431884833621 -98.58702355430341 -1.4338037420742502
-107.25048391167711 -97.13774522357738 -1.363407515616825
-106.53689677856246 -97.2985727066345 -1.368172173838439
-105.9652622951033 -97.70648460963338 -1.3719902161121413
-84.60658024600654 -97.14747810827025 -1.425968002453638
-83.77103723255499 -96.9045221629925 -1.4264202946120697
-82.3650362514322 -96.75843873374455 -1.4267405835602898
-105.47686156185343 -97.15619797010864 -1.3720585171648216
-104.4840855668161 -97.28415210701728 -1.3763646478100808
-103.48389902324374 -97.22365552160007 -1.3814708300266685
-102.48551751128153 -97.15371524414755 -1.3862172182571493
-101.49980566455632 -97.06059030728856 -1.3907380655476003
-100.8152905270841 -97.1035429322174 -1.3944747214063502
-91.79662755582305 -96.81952281867468 -1.417033397598849
-90.60330329237644 -96.90244669119511 -1.4183671570145329
-89.24978855904277 -96.91271088403532 -1.4197746906979467
-87.91843373430532 -96.839723179022 -1.4208733576784818
-86.51146921675752 -96.88391795115422 -1.4223369490150792
-85.16590842468446 -96.71374938543663 -1.4237598271045244
-100.30721736651915 -97.05348603698857 -1.3968334980576507
-99.63102473944856 -97.10888282256384 -1.4015375062744093
-99.60106757425842 -96.69853914396906 -1.4069445916913135
-94.9040862576822 -96.7770741830065 -1.418932001505676
-93.72769474600192 -96.87018551421504 -1.415951135384021
-92.47032290447876 -96.8729909126688 -1.4165488581776842
-99.93726018168284 -96.81886067146014 -1.4132599924159837
-95.9898555612243 -96.95990645954406 -1.4239276339837277
-100.13671552397439 -96.86780488659454 -1.4210030594134675
-99.87095267323244 -96.87966142948484 -1.42630666530226
-98.59423163339352 -96.77881847949153 -1.4293213513757226
-97.33300429770478 -96.91603301234096 -1.4282370768627004
-108.17218121251359 -95.46626954119708 -1.3548823894603381
-107.40876332464688 -95.72559925392461 -1.3598821974767896
-106.40021263692034 -95.60319547127686 -1.363703298051721
-83.45221470615351 -95.31847556433257 -1.4227334431426761
-82.24264658321827 -95.1809563459273 -1.4243476931725714
-80.90034834278732 -95.15533183754441 -1.4254916711174068
-79.79706780857111 -94.50153018788988 -1.4244678485552784
-105.82896776723807 -95.45603442270551 -1.3653197184550727
-105.22425735411582 -95.57829226241505 -1.3679200988424538
-104.15765433885802 -95.57519890521819 -1.3720613151187757
-103.18344707656165 -95.57803188432686 -1.3767454765102503
-102.06365752165351 -95.45367896179452 -1.3816225443444992
-101.1382443773139 -95.40682918657573 -1.3858150172420087
-100.34755800255917 -95.65227792392479 -1.3906700396124891
-91.49402725132555 -95.24157074692972 -1.4121139816094581
-90.26997581930361 -95.22492679601694 -1.4133951193700782
-89.0054205821685 -95.27903075740599 -1.41496686954313
-87.58141247849807 -95.37362523631089 -1.4168044651032814
-86.09631605493426 -95.1909364546953 -1.417849371912324
-84.86248047822875 -95.35117924708915 -1.4203529468070664
-83.986241727947 -94.90993309634787 -1.4206252562739101
-99.79380424214472 -95.50447045966158 -1.3927632056975612
-99.16475889666081 -95.45951360591405 -1.3968947710328603
-99.1817533488037 -95.21381725290554 -1.4022665504643046
-94.51107199048099 -95.16893102245544 -1.4135315611574686
-93.3159791242352 -95.44826091125557 -1.4113958392750219
-92.36063814720325 -95.56483720662978 -1.4123072124103615
-99.54881605486159 -95.36799881083464 -1.4092390502456313
-95.81508538445718 -95.15574784654616 -1.4188490334519828
-99.75914141316242 -95.53331507400526 -1.4163881232973043
-99.29821184299121 -95.34354544783511 -1.421353697547517
-97.96226662579467 -95.27207761260797 -1.4237650245974882
-97.08525766335556 -95.36663289126149 -1.4233516778054807
-109.04076353645524 -93.88938580650706 -1.346757607415225
-108.17599561833426 -94.11471175414869 -1.3522031907147047
-107.14035344882194 -94.05943003161768 -1.356054666807924
-106.35643212612524 -94.17792082564789 -1.3592880036130954
-82.82409448087103 -93.51095792051288 -1.4186130052698789
-82.02768809454547 -93.60288874330924 -1.4202697320649644
-80.61985828364882 -93.51843590861516 -1.4224138213897417
-79.3044672209949 -93.5405724194747 -1.4236376269798139
-78.06487907301425 -92.79696984028001 -1.4224787976197812
-105.76231925341946 -94.01534841580987 -1.3608952985817853
-104.86240471868905 -93.95585038938927 -1.3636966178817866
-103.88326159459999 -93.8687794469555 -1.367220276150072
-102.85098189787843 -93.91318019412456 -1.3718436370218061
-101.79211336166549 -93.93810779457954 -1.3769347999898645
-100.79432758441263 -93.77996526587107 -1.3809214638895102
-99.75721959658436 -93.82473604338372 -1.3858303126843412
-99.10196925560982 -93.47623547611568 -1.3875145939588007
-92.1746098820051 -93.3815898929154 -1.4052218448039262
-91.41046492321152 -93.61796748831762 -1.40685638576459
-89.99129293645504 -93.46739213150401 -1.4080720374590354
-88.67162381209707 -93.59454375765252 -1.4100231058474846
-87.30016577983329 -93.61133851094218 -1.4116099775825381
-85.77408728492787 -93.42111876903002 -1.4131333874294971
-84.46151865459284 -93.54577053738514 -1.4155581707600078
-83.56722453601036 -93.56823583192514 -1.4174196892298387
-98.78417124799802 -93.81288953778278 -1.3909247808375522
-98.76921946530032 -93.71467966284081 -1.3977483216612694
-94.16121912881596 -93.51075835013813 -1.4082322991210054
-92.99722090998688 -93.65568871866662 -1.4056093434777526
-99.17564470786063 -93.73445416818241 -1.4066950880828368
-95.65557261153234 -93.55532577125538 -1.4143090420468902
-99.22171748995353 -93.77881593074828 -1.411756045240503
-98.75684888232736 -93.50783320816599 -1.4144605941172455
-97.57429138977642 -93.59273735189983 -1.4176529171562504
-96.84998290377395 -94.03450050527478 -1.419070119046346
-110.40347013367817 -91.75835851465534 -1.334191217525235
-109.85587771197441 -92.30519668270539 -1.3389817661377668
-109.10344235948139 -92.38217661611475 -1.3435202070654872
-107.96960568024552 -92.27829842281763 -1.3473033751537349
-106.88608672535078 -92.45610616437402 -1.3517683387999206
-105.88392285639836 -92.12485270448263 -1.354026951510512
-82.60639159640336 -91.9433301506619 -1.4141877244325272
-81.63607817657396 -91.89628957509494 -1.4159577924894697
-80.31345115843983 -91.89909146258661 -1.418349706417455
-79.0995684648374 -91.77940066011183 -1.4201665298802677
-77.67019961901019 -91.82495078707643 -1.4218428415702553
-76.61874636566088 -91.35574089952252 -1.4213776190718959
-105.52149214979372 -92.43752658571529 -1.3562893713400395
-104.54776098454803 -92.30733195046328 -1.358989368398762
-103.92125436180467 -92.30144006238518 -1.3648430118222679
-102.4309266438884 -92.21245900168059 -1.367147621244024
-101.57395540379017 -92.36480349008143 -1.3717431742388395
-100.46379194057891 -92.19785251611347 -1.3761826595817905
-99.40498866943767 -92.17766623965048 -1.380857477616756
-98.53681741200504 -91.85839515295034 -1.3834974388233137
-92.07539410172144 -91.90041568562681 -1.4004602777155026
-91.05457121209285 -91.89648198905651 -1.401706464687387
-89.53669023482648 -91.86900550313817 -1.4034935682520633
-88.21940444069108 -91.88938897914137 -1.4051142614136825
-86.85907500457549 -91.96137092405506 -1.4069097687773315
-85.62525426253131 -91.95796319134148 -1.4113480422564102
-84.22859876726604 -91.81968478847278 -1.410454179910576
-83.27410938481694 -91.9233550050535 -1.412751994459737
-104.64246137532925 -91.59742630542185 -1.3675137486438227
-98.26563007865639 -92.40494495331116 -1.3874703710208474
-98.29518083600189 -92.20378280962049 -1.3922375586823
-93.86724277172459 -91.89619491984179 -1.4032923858020188
-92.7825846179787 -92.08616353389519 -1.4005476274300495
-86.07286955522048 -91.37846226913649 -1.415256336875756
-98.65000063469866 -91.99394185265555 -1.4006598973589017
-98.47096968347051 -91.4621658323344 -1.4047299494833692
-96.45067041243904 -91.95198252799409 -1.4119618354786774
-95.40179158298463 -91.95715834294123 -1.4094523595130792
-98.25986051945826 -92.04237475917773 -1.4093721248496374
-97.27482387289022 -91.9576307202727 -1.4116571619074947
-111.27613293574626 -90.19505271462755 -1.32612067741884
-110.78572923243019 -90.85402726961921 -1.3311055981591642
-109.87627218023178 -90.84094200185002 -1.3358003555182658
-108.74661836700312 -90.83330680447366 -1.3398252959646075
-107.66918578760703 -90.82323939136204 -1.3436061055252335
-106.51817087990122 -90.72188391536099 -1.34709818853748
-105.52818393379569 -90.65215757968932 -1.350063234275071
-82.45785692995376 -90.25402522780814 -1.409028548072291
-81.28802417891875 -90.22381204529763 -1.4113355872427242
-80.06496361885762 -90.17117215213109 -1.4136403340423662
-78.84168547206582 -90.14839542134429 -1.4158566191407707
-77.38824217599957 -90.12242921618014 -1.4183995561115914
-76.11700750869782 -90.22676265134476 -1.4200244150405688
-74.93721252477287 -89.6292337946771 -1.419561803953557
-105.01453787347194 -90.68444194138036 -1.3518379542988908
-104.15314227615765 -90.75779323969901 -1.354827987667248
-103.63097111742246 -90.64532416564973 -1.3605035105204002
-102.11570911646893 -90.65175035235467 -1.3624370993652661
-101.03374030649717 -90.4819616140094 -1.3667436792493133
-100.00300364751743 -90.5134451293204 -1.3715239718628665
-99.04960234513919 -90.55091769097723 -1.3759462044845274
-98.07185610853065 -90.42326634979595 -1.3797345099019909
-91.9191351167669 -90.34458714273312 -1.3954910678180246
-90.64029438699905 -90.31052350199933 -1.3970229454741572
-89.28447768435015 -90.30129359512082 -1.3986784646671275
-87.9183851628828 -90.45013957927857 -1.4008344217322684
-86.49253316513382 -90.32606205485004 -1.402108403862626
-85.42791885305515 -90.23172515402148 -1.407218719240983
-83.90898968256296 -90.20707686702455 -1.4058045393038618
-83.03129701209465 -90.3088335573078 -1.4080234349346887
-104.31270859133892 -90.65537476617533 -1.3654446419192938
-97.77889100486243 -90.87545882933031 -1.3833722080896576
-97.79858130498529 -90.26876969445212 -1.3871995021283063
-93.58409841023018 -90.27752295496371 -1.3982477905432933
-92.65114000320175 -90.44864857602174 -1.3952992348713615
-85.9634258711349 -90.40042425218742 -1.4125030958826301
-98.1862635088942 -90.4425219131819 -1.3951455386051046
-97.82493228472785 -90.2900864860751 -1.4019400011106176
-96.4377247308031 -90.31159692339492 -1.4056890527380423
-94.99404241428876 -90.23566217971485 -1.403603558922669
-97.67978014032448 -91.03973813514348 -1.4067428512593618
-97.27797057540606 -90.86061095869256 -1.4070439874241545
-112.12333713923874 -88.62421284301178 -1.3179280807629141
-111.59206274332766 -89.2071299189964 -1.3227403571550589
-110.6419116092377 -89.17473869324766 -1.327690799598934
-109.58116997657442 -89.12791044239 -1.3312972461995412
-108.49584276536731 -89.20190456603949 -1.335321763830506
-107.3470641150431 -89.27307706744506 -1.33937265036743
-106.17349817956556 -89.1317249763593 -1.3426838870663518
-104.99972079871328 -88.9410280958683 -1.3457035977914773
-103.97811147472419 -88.62496787641446 -1.3476093624873489
-83.97784240971134 -87.88371741793829 -1.397546987678488
-83.40564210483768 -88.23630546943872 -1.4000828663329672
-82.22559157232085 -88.51709417084314 -1.4037421638143388
-81.03320671074425 -88.72695077583784 -1.4070070017575114
-79.72120357961205 -88.5451097475105 -1.4091275705448818
-78.44838628159319 -88.5250292596021 -1.4116377968331753
-77.12412843853961 -88.52333949948498 -1.4141569934392568
-75.90739894914506 -88.52641612112238 -1.416413126121612
-74.52356179089725 -88.5726209923941 -1.4182351204648171
-73.38073620114318 -88.08842744426447 -1.4179096454713305
-103.89916045200398 -89.29830238233967 -1.3503048237870523
-103.32931467517065 -88.98685331951864 -1.3562013439754048
-101.77666377089137 -88.97618085911266 -1.3572862505102141
-100.75794978513146 -89.05613169966396 -1.3622682251383011
-99.6625373992242 -88.97251295357056 -1.3667850593053343
-98.72106269823475 -88.94715161934727 -1.3708145632154511
-97.64824520640325 -88.84677179252994 -1.3749839509541686
-92.2059566595593 -87.95453571614074 -1.3873218057241816
-91.63367875795169 -88.66095917877897 -1.3900785684277204
-90.35038049977379 -88.73364972538765 -1.3920644114498626
-88.78713279960185 -88.65218099643343 -1.3938304429286392
-87.50192843023356 -88.66048374078458 -1.395497047719299
-86.06049037268087 -88.54188973977136 -1.396837794546717
-85.02167254932115 -88.619319003862 -1.402730132241409
-83.71320221319979 -88.88459907507944 -1.4016492317065927
-103.98868993449902 -89.55712081810243 -1.3625888258257521
-97.35671702812188 -88.69585934416746 -1.382749385585206
-93.38253936196242 -88.76183886508288 -1.3937072257483074
-85.73583614045886 -88.65660812296287 -1.4071512173302392
-97.63143679749616 -88.61602368289266 -1.3900732875262396
-97.17188147468711 -88.66800339568357 -1.396211800799521
-96.08868193072475 -88.7529335826132 -1.3995669469140373
-94.65795879021594 -88.63730829811067 -1.3981980017370474
-112.95523386077747 -87.13392524844684 -1.3107262359005647
-112.48444136649337 -87.58481467406108 -1.3146936958348294
-111.36969847125084 -87.56194633081701 -1.319885122175636
-110.39632652221022 -87.60221321423364 -1.3234018271445036
-109.27003972260911 -87.55745410662992 -1.327127079737549
-108.21462659835389 -87.64587957929825 -1.3309097131367544
-106.95309075815639 -87.46358783819349 -1.3343542101138024
-105.80964967209533 -87.3874533495362 -1.337625648795686
-104.70556784958843 -87.42365611815995 -1.3410553197146018
-103.53941374837476 -87.53245436977308 -1.3449185251394171
-102.83590708047628 -87.1907670662543 -1.3457255870695741
-83.84489468229029 -87.05680352481207 -1.394956907625887
-83.16004241577035 -86.97650330380648 -1.3962291777323008
-81.86141749430409 -86.97733054699712 -1.3991974590047866
-80.66903735383302 -87.05309006698364 -1.4021691819223878
-79.3471806931403 -86.89457610998647 -1.404530217580676
-78.12251009438629 -86.73040158472033 -1.4065445029660077
-76.92470040885874 -86.90600563062748 -1.4095397442961997
-75.53694558082725 -86.88995545903386 -1.412189141908274
-74.2179041262927 -86.80962461604413 -1.4144183396704006
-72.92010273950778 -86.90840838922145 -1.4165332768229586
-71.8036566297357 -86.4035431734889 -1.416267660927646
-102.94008453835272 -87.31947063299674 -1.351415861998938
-101.36272944671789 -87.23206052666698 -1.3520980643141396
-100.39192648261235 -87.29185745080778 -1.3567417039064706
-99.34311200776925 -87.18311874425305 -1.360856026591383
-98.33596485373081 -87.23911427724863 -1.3653358768390351
-97.26419539632262 -87.13679592444439 -1.369459800021481
-96.67403276906403 -87.12129684599745 -1.372861826581115
-92.01356689633202 -86.78915447088704 -1.3836472152398682
-91.26473266147967 -87.01157960052554 -1.3848433118053516
-89.82472132460673 -86.97579610858247 -1.3866958107335228
-88.50988454010455 -86.96270767805773 -1.3884879609954532
-87.21671794391278 -87.02867569265395 -1.390426654963238
-85.82011007305704 -86.98012389403489 -1.3919856264169228
-84.67111141198562 -86.9655647325068 -1.3971834960767249
-96.89747141340716 -87.16157708809452 -1.3780859292930843
-93.23417543321467 -87.15755885875889 -1.38915399763704
-97.15227813704294 -87.14929436341552 -1.3855383531705288
-96.754081700105 -87.13819246269284 -1.3898312515565594
-95.48583247444571 -87.02532403047476 -1.3929629453564376
-94.27944509610876 -86.94216143166376 -1.3922265523411819
-113.8562829150434 -85.45219201316462 -1.3026719398838613
-113.31057398167101 -85.94764683272683 -1.3067563055536935
-112.32118023480388 -86.00688207272303 -1.3114520330583677
-111.1281641877881 -85.88484323202522 -1.3151576410512056
-110.0250633513016 -85.92541025476433 -1.3190148680278522
-108.90622280656393 -85.87762211910086 -1.3225270066128685
-107.76532407466621 -85.89488176366402 -1.3262440213433446
-106.69938993465097 -85.85477798053157 -1.3293770295669487
-105.52776841206996 -85.77723347117836 -1.3325930159735457
-104.35231635894473 -85.83225094088097 -1.336286573895085
-103.09990906327484 -85.71167546038339 -1.3394990206296624
-102.11820359495412 -85.4499910051333 -1.3417105715152802
-83.69137627210395 -85.09565453942703 -1.388686071006901
-82.73666998917302 -85.36541735783389 -1.3914874331543734
-81.55520529855947 -85.20356088834174 -1.393674775908243
-80.25582205004552 -85.22262725235973 -1.3967192160246984
-78.99276867446747 -85.28653973514619 -1.3998118613351163
-77.66254883537341 -85.16093738790946 -1.4023385436162503
-76.48390998656308 -85.23623525794393 -1.4050702862256723
-75.30047617250962 -85.19845075078857 -1.4073541256154893
-74.04087383439384 -85.23804349100206 -1.4099664818278987
-72.74673892637686 -85.22661152768544 -1.4124127946803469
-71.32651902422774 -85.3611858389964 -1.4146651572073567
-70.16484476565185 -84.78775648287447 -1.4148534233427976
-102.62051346457363 -85.73428231036952 -1.3468557757107524
-100.94964708251214 -85.6087458416544 -1.3472963989674531
-99.92780046282303 -85.6103845774983 -1.3518869631626131
-98.991490030628 -85.60663378036514 -1.3559114493806284
-97.84506056232378 -85.57756613047619 -1.3605463031611578
-96.80370197584094 -85.49604839356867 -1.3645702021649218
-96.22076798428026 -85.47076649228079 -1.3677945058376275
-91.79518962045184 -85.51798534715938 -1.3796239465924462
-90.88352760341004 -85.44745331907501 -1.3799370394817234
-89.43334603234129 -85.44457443125648 -1.3819745793634814
-88.22011141049947 -85.55203460130565 -1.3840844758466218
-86.725582882839 -85.47726492342696 -1.3858364085452568
-85.44920617789303 -85.47893481535739 -1.387423701273301
-84.36821007831819 -85.39213831647072 -1.3931774269928945
-96.43838069087421 -85.45399407322564 -1.3740501403998524
-93.02809649793628 -85.32649216817855 -1.3836472481132294
-96.64828841297208 -85.66754152935204 -1.3807139133619888
-96.17114027643854 -85.42649081051634 -1.3832561903250737
-94.90976087467234 -85.32549632460918 -1.3864072398155782
-94.06984668771813 -85.68418517587943 -1.387922785699578
-68.26217391543558 -83.01426131984749 -1.4112568351945136
-114.73199372266255 -83.87208705510807 -1.2944719320386515
-114.06765586710162 -84.38368644517813 -1.2991451697577447
-113.07313665293243 -84.39559335741785 -1.3035247419597036
-112.02369018556804 -84.34312329786023 -1.3069170553067881
-110.89857107460564 -84.38820023075749 -1.3108336537532217
-109.71619862827367 -84.21173956482222 -1.3141133871756752
-108.60570070899135 -84.27619098269363 -1.317851897778798
-107.38307693004583 -84.1526478967997 -1.3211293239785962
-106.3334688643754 -84.37921589178512 -1.325089245172831
-105.13126969438424 -84.2139121197879 -1.328057020795037
-104.00336008940042 -84.30397832064752 -1.3316793430301537
-102.7558255510711 -84.09473148581581 -1.3345145659243391
-101.46430557723211 -84.16043595336369 -1.3392437715716263
-100.97441815511296 -83.95299259277243 -1.3403239216964473
-84.40623479854547 -83.39732879615156 -1.3817119503955322
-83.65822997423426 -83.75165210811568 -1.3843066833293427
-82.38097821878976 -83.69828699691865 -1.386361602900172
-81.17854377440192 -83.63941991550888 -1.3889854767975445
-79.90418649858191 -83.64252167767536 -1.3919822187222448
-78.6582076043434 -83.68620891545021 -1.3949880271419144
-77.52181150312984 -83.78543943722381 -1.3979150501810638
-76.16631936783182 -83.64290251483267 -1.400446606151041
-74.95515133370562 -83.58645751875787 -1.4028600219383063
-73.69616766610058 -83.51541720888618 -1.4052095512080305
-72.44452273275797 -83.52367497401322 -1.4077274681798722
-71.21863464327289 -83.58006303553371 -1.410310484596494
-69.7692490832121 -83.61477632547445 -1.412619886124214
-68.64120293476462 -83.21502312313505 -1.4129471283312676
-102.33840993450761 -84.04509573403358 -1.3420707734887742
-100.63602398602424 -84.1393111373064 -1.3426532995367537
-99.5819807541222 -84.01628075292703 -1.3468489621930084
-98.58060666867968 -83.97006880794068 -1.3509595431029313
-97.53275319657789 -83.96084728876043 -1.3552643566820752
-96.45865707883748 -83.88223274819353 -1.3593753695056652
-95.82642680014409 -83.99609762180458 -1.363126423194745
-91.4642452156592 -83.75178297750712 -1.3740037583329658
-90.4157968778838 -83.80862285278678 -1.3749501201231489
-89.21284601232266 -83.76427843277592 -1.3765341203859518
-87.75028843757175 -83.66786293511127 -1.3783101258362942
-86.53964011093191 -83.84013083401115 -1.3805403325325416
-85.09840393237229 -83.72213974818922 -1.3819739454167501
-84.04216697012986 -83.78583412978728 -1.389454147027884
-96.01191235273501 -83.92617961466185 -1.371085426600651
-95.72014712387153 -83.5994007233254 -1.3752688573043967
-93.98509436313734 -83.41304427786243 -1.3792718881254529
-92.82680514396152 -83.86611856143512 -1.3790238645252815
-95.4112300240201 -83.88979747711747 -1.3786398936893363
-94.58284207215034 -83.84135011127023 -1.3804920467455022
-115.36359303050422 -82.14934784132932 -1.284944902101508
-114.91862729485553 -83.04634415159886 -1.2894575658444083
-67.6333939976843 -82.35889562264938 -1.4104330323422565
-66.67512054451446 -81.48036497417448 -1.4101254220518569
-115.53345199338708 -82.3876018227075 -1.2869894850718595
-114.96756635649166 -82.70322486436768 -1.2909095038783316
-113.90434895861931 -82.7641673632185 -1.2952498223914444
-112.7569342968363 -82.62398286967499 -1.2986285930121326
-111.7141098501123 -82.65450907042431 -1.3021698070132497
-110.57518694399312 -82.7007361235228 -1.3060727413226472
-109.30905197480061 -82.64998008837952 -1.3098436582930195
-108.26976076043185 -82.59131011372803 -1.312782681219803
-107.05456232804958 -82.64645456008795 -1.316616453193907
-105.92079300424601 -82.49616312943878 -1.3194335085249718
-104.67543215346569 -82.67389000154138 -1.3237071449881754
-103.53151640096756 -82.41241832042564 -1.3260196554543051
-102.42558909252946 -82.54165316387797 -1.3296721837379941
-101.42287145962182 -82.49132313719716 -1.3334048941714596
-100.49237059401081 -82.35342376024232 -1.3359370818751082
-84.29423376038145 -82.016290492071 -1.3772455362937488
-83.4905514755473 -82.25381116227008 -1.3795042951884733
-81.9990815571373 -82.1134309275811 -1.3815383431598374
-80.82822126040635 -82.14655375951288 -1.3844454283724803
-79.59854679680592 -82.04665161771513 -1.387004299488632
-78.34949261520356 -82.01364315602115 -1.3898225015466825
-77.13773748713709 -81.93704995613207 -1.392343565937128
-75.89422729673255 -81.95078651070344 -1.3952091265383786
-74.71175846250931 -82.0756456620422 -1.3982934584315878
-73.38526331423247 -81.91168429078891 -1.4006404495391873
-72.16369032768247 -81.90820889053916 -1.40316099633728
-70.87001269025474 -81.96470007997515 -1.4059442440636256
-69.58758496060402 -81.8279757037574 -1.4080706984298492
-68.26848856590084 -81.91872570244931 -1.4107408901063865
-67.06870372491147 -81.54743595047226 -1.4113932077506255
-102.06166213687503 -82.39271852726903 -1.3377000791651177
-99.96528246017051 -82.38747586228686 -1.3384541992950705
-99.16309214259093 -82.39973526749651 -1.3420041366345334
-98.19965556153242 -82.36997884410974 -1.3459698096477009
-97.00356253990647 -82.18233022668127 -1.3501427328792726
-96.08924315037663 -82.30686114641478 -1.3544556230190268
