# .PCD v0.7 - Point Cloud Data file format
VERSION 0.7
FIELDS x y z
SIZE 4 4 4
TYPE F F F
COUNT 1 1 1
WIDTH 829
HEIGHT 1
VIEWPOINT 0 0 0 1 0 0 0
POINTS 829
DATA ascii
-83.87332852680105 -108.78027614466453 -1.2732266723149455
-83.2669169552599 -108.95628022372532 -1.2672674428942026
-90.93969946272219 -108.53722539549763 -1.3106407228066832
-83.84008901178778 -108.58596061972762 -1.282147194039861
-90.02906133273255 -108.49785156555225 -1.3143496280096316
-89.32097074671005 -108.45460064838997 -1.3150816060763117
-83.89205610301484 -108.67302167154615 -1.2912479758868978
-83.76582124440954 -108.63238089752643 -1.2869906424296877
-96.60472209488911 -106.96896487228771 -1.3067112302031354
-80.43339203548528 -107.32129694161647 -1.2418164328302896
-96.05626694217386 -106.87375493093936 -1.3064614769981604
-94.70319083098259 -106.86380215671703 -1.3049093013569866
-93.5909933643173 -107.00299074904535 -1.3035765399359676
-82.23811655335817 -107.25352147867017 -1.257711929879687
-81.26492403492938 -107.32516976206857 -1.250005701786627
-80.65555866850389 -107.47943684728642 -1.244724881661451
-92.73576123916963 -106.99856085396686 -1.3026040878486114
-91.49948815949023 -106.84823410325068 -1.3016687617634033
-83.47843872004364 -107.1677868279609 -1.2687335459404576
-82.81941792738438 -107.18764316525545 -1.2623432278792348
-90.63770294506573 -106.88957944228243 -1.3058089917478708
-83.58286530765253 -107.21229511372462 -1.2779808453443917
-89.7299712112219 -106.86369573761624 -1.3097072630704791
-88.94988892513662 -106.71257729008329 -1.3102597609602773
-83.63208309426537 -106.94473619722922 -1.28769417778295
-83.52588733145704 -107.32355317246865 -1.2830209877486298
-96.7423823709537 -105.09288398504765 -1.3034254658371929
-79.71368256478463 -105.73889922382506 -1.2360685829648033
-96.01432480128403 -105.00847785696898 -1.3029526084553678
-94.42693716207168 -105.24805648432678 -1.3014044913726117
-93.46787825718278 -105.49745674403499 -1.3003075881167319
-81.71309493137827 -105.64883102159638 -1.252787817497291
-80.91462774232217 -105.66311514079 -1.2468183226230591
-79.93560126122377 -105.61624800147834 -1.238671928911923
-92.61497454743008 -105.21155918053871 -1.298584717477582
-91.22983695210726 -105.12702124574986 -1.2970174455269192
-83.0964270524199 -105.44990699888982 -1.2640599335655607
-82.29652988673757 -105.63455275022847 -1.2570580052872498
-90.3466202955323 -105.13677726836238 -1.3003102477232908
-83.28355773919928 -105.53134460305523 -1.2731561625234034
-89.50370937693528 -105.18051799751446 -1.3044491639227629
-88.5931238287844 -105.12379191356939 -1.3057075031823437
-83.34546603642833 -105.34583568880754 -1.2831580606518738
-83.24536159272617 -105.74340970510913 -1.2787407839939324
-87.74408760532798 -105.10172686453515 -1.3066678352741992
-83.7193631671583 -104.43964339649494 -1.294635215486054
-83.63531798698601 -104.97220991334989 -1.2870209983807042
-86.68962041826389 -104.71038958494489 -1.3077991356501655
-85.60050604172974 -104.78920682166905 -1.3062172541530772
-84.32581242174481 -104.86515453437444 -1.3005689585167823
-96.85624617591876 -103.12741167359384 -1.299967696674889
-96.79551845837867 -104.04849172453456 -1.3015668017083184
-78.97083286014427 -104.10727608747843 -1.22986343061742
-96.64685702341671 -102.90875498477303 -1.2996204606374093
-95.87072717576088 -103.5250514621242 -1.300003089725552
-94.16651340105082 -103.60468965370336 -1.2977605815294264
-93.03313461831385 -102.81708445455972 -1.293409052936359
-81.20044160306935 -103.68800548971561 -1.2471311033766077
-80.55765118006548 -104.10655040130544 -1.243289758725638
-79.40488374593036 -103.95528263974496 -1.2341431174960817
-93.18346899404577 -103.33823767318225 -1.2954924483728738
-92.34045786843004 -103.60209079607506 -1.2945770844499
-90.79374589319441 -103.58006389673841 -1.2927326874560416
-82.8083757167049 -103.77298382800838 -1.259727686650932
-81.88995455216146 -103.94664092863223 -1.2526205758014761
-89.9250583339771 -103.61530192342971 -1.2963004807167187
-82.99235555396304 -103.80959937417258 -1.268373903360379
-89.07765844788227 -103.45438660096178 -1.2994948458755256
-88.31513272778028 -103.63308925427 -1.301336888146823
-83.03292868727115 -103.74218141900246 -1.2778140779954363
-82.86598267456718 -103.42623570260662 -1.2719109950447742
-87.05953628633506 -103.24228656562012 -1.3019478415864627
-86.17401113481795 -102.81523354782354 -1.301410801782537
-83.58599520041919 -103.32498849921032 -1.2913577558974945
-83.34319166023016 -103.03887557734078 -1.2847474254312066
-85.48168112807309 -103.68537353569323 -1.3028859498397414
-84.23868409181803 -103.64780178331888 -1.2974978616275297
-96.83929522982979 -101.87861868976974 -1.2977836472117579
-78.4558511654549 -102.96426133564384 -1.2255481872106888
-78.14560100658217 -102.30094540798788 -1.2226840391900835
-96.55773655436072 -101.80850232299711 -1.2975104893903244
-95.42896126889036 -101.88326127072236 -1.2961899497368987
-93.7721722786777 -101.94115016770915 -1.2922562714830808
-92.5318485772051 -101.93583301290018 -1.2890107729171525
-81.39064016474971 -102.44344511242849 -1.244813951871987
-80.08712754340587 -102.26243717560607 -1.2374775212110833
-78.89614971088587 -102.5618611541146 -1.2296523826007557
-78.10472339503403 -101.93403006290478 -1.2229399705518937
-92.86917638048708 -101.32391257841854 -1.2901962427510423
-91.83896735692115 -101.94626714444493 -1.2883194703414502
-90.57133257834185 -102.09714719379055 -1.287956888447782
-82.5838169437554 -102.23519827974279 -1.254983579582426
-81.64600180586771 -102.07118168215459 -1.2473576549699115
-89.51095987547147 -102.04358829835805 -1.2920261286348291
-82.60856965048804 -101.82149943453696 -1.2672167317173877
-82.72642644274231 -102.28361892287764 -1.2643488456660725
-88.7431166171515 -101.97747821245446 -1.2951445013669867
-87.97026508482321 -101.86227665372061 -1.2959002899558358
-82.78302261240277 -102.22684683207713 -1.2734916966268497
-86.77651397939417 -101.80871658890673 -1.2975369694469423
-85.8614985854345 -101.59311041022099 -1.2972949314900544
-83.44081258592367 -101.90428859056898 -1.2872771704798118
-83.18526732562118 -102.03793880292439 -1.2817989401729917
-85.05542936510423 -101.90551728889528 -1.296892425587996
-84.08419614915027 -102.04491433233908 -1.2931296319762764
-96.95725472311514 -100.28501303640553 -1.2947107985932003
-77.5867399690529 -100.91339138560264 -1.2182441604609995
-96.43054718964903 -100.163786666721 -1.294213818627752
-95.14386667350753 -100.25044001500763 -1.2922504459183655
-93.46681936477913 -100.26787397163311 -1.2882217958327835
-92.3793485374054 -100.08793489290905 -1.2846401773254046
-80.90589060465064 -100.54860218553453 -1.2391215249354084
-79.83125044137098 -100.71536251802439 -1.2337076928692734
-78.35499879330291 -100.74869232854915 -1.2244601862360223
-77.55011726217673 -100.40616354213512 -1.2180842142538326
-92.6220364770169 -100.24822716678662 -1.2871714357429844
-91.5577544311853 -100.34904290306874 -1.2845161451239355
-90.10483906508738 -100.17829664658129 -1.2823507452735097
-82.3138991206243 -100.59620195543394 -1.2509503041147647
-81.38583781697564 -100.59287864846897 -1.2435308398543305
-89.25973360457535 -100.25522853449839 -1.2862761168886472
-82.40637944072611 -100.50169878805319 -1.2634330779354248
-82.41108986600774 -100.5110083043757 -1.259266713314014
-88.4277985829473 -100.28876007571296 -1.2897570785865713
-87.58892293137991 -100.31996795666554 -1.291050489029487
-82.57483234686313 -100.37771894333396 -1.2694302009277076
-86.53256657020798 -100.20056237985794 -1.2920976436761304
-85.42918747371826 -100.19412875918208 -1.292403778177046
-83.38185685910224 -100.18995854938231 -1.2833865570601066
-82.94937988546573 -100.40147509197868 -1.2770246991790637
-84.58678517257547 -100.32111789630176 -1.2911689685667411
-83.99470439124553 -100.19617745645199 -1.2883333929203942
-96.94830051280432 -98.44613314030511 -1.2912575867869427
-76.90394614335698 -99.37498332663475 -1.2119634228850074
-96.11938538789273 -98.64133749280577 -1.2907313197807568
-94.71221280586025 -98.66619048420583 -1.2879392138600785
-93.49218005528353 -98.71745633530008 -1.285335896960718
-80.58706534753689 -98.94319210409867 -1.2345550097502729
-79.51001972343371 -99.04041048170706 -1.2292867855257763
-78.07663991233201 -99.08077250634237 -1.220830296425792
-77.20871755844877 -99.18748645276365 -1.2149316358695172
-91.3304502486747 -98.49360143390439 -1.2803889633889416
-89.60804292065987 -98.70687371758824 -1.2783667351300418
-82.03083100150829 -99.10077442213003 -1.2466591340806141
-81.01719153494967 -98.89755264790459 -1.2383336054900174
-88.80988120257624 -98.62058312501016 -1.2816315167856933
-82.1581916219222 -98.86217577706074 -1.2587033762449062
-82.15180429272905 -98.85844606745873 -1.2545483967917093
-88.11020801587429 -98.81249146414098 -1.2851690967082987
-87.2238169239828 -98.65837535644748 -1.2857114198735944
-82.40844114858132 -98.87118391934298 -1.2656726986972375
-86.15696782381148 -98.71840873596437 -1.2873440296839649
-84.94818926159896 -98.5630462147695 -1.2864862536669162
-83.32235854050181 -98.56582626505757 -1.279438353810228
-82.7130924991914 -98.66351056632256 -1.2717056546866252
-84.16290445917281 -99.13846295675535 -1.286483519525023
-83.86467092043351 -99.29828517056679 -1.28546081384473
-97.02085166871282 -96.25534032067424 -1.2870147310131452
-96.99550457102383 -97.23368355899302 -1.2889150584025901
-76.17541111810725 -97.58590200022259 -1.2056975254546605
-96.19378020208505 -96.86722800475495 -1.2872607597264296
-94.47934410167497 -96.97097282830029 -1.2837832057861733
-92.52192141207769 -96.95859315567246 -1.2782442423556404
-91.56446645204291 -96.69967806699077 -1.2749367386038453
-80.23141930193498 -97.38285587163045 -1.2301688551379744
-79.23348710661648 -97.47030658195875 -1.2252173744103898
-77.76332076343702 -97.42033392201428 -1.2167564277708653
-76.69430677162778 -97.61045633620841 -1.2100423363080026
-92.0099780112047 -97.56310717231894 -1.2794557188464748
-90.94706891822464 -97.0169271501129 -1.2748972092970614
-89.75491219050042 -97.03746795928203 -1.2728866722210572
-81.70525996642374 -97.24232789030225 -1.2409873919709922
-80.70565852200359 -97.48587198780349 -1.2343910943504612
-88.49611652683166 -97.11605690463796 -1.2769768048381942
-81.9101946319885 -97.19849466710336 -1.2533201756608514
-81.91740246932038 -97.31619809038516 -1.2492235839047963
-87.77536270012182 -96.91900086858354 -1.2789222206915076
-86.90181078027607 -96.97607731129513 -1.2802908367609251
-82.17241229146626 -97.17806951550958 -1.261095876542142
-85.81806336735629 -96.98306616586353 -1.2815209327585733
-84.45817196002746 -97.01428839142112 -1.2808999538608388
-83.00671341771363 -97.03429264298988 -1.2734279125808068
-82.5427981405785 -97.34368925116951 -1.2679412169922115
-96.99750977549918 -95.10763813044795 -1.2845708684837542
-75.7358789784352 -96.49740101327535 -1.2015359860316364
-75.35993382458314 -95.51330444049685 -1.19782190955146
-96.7760781893911 -95.3175676916789 -1.2850748285469153
-95.87865533589637 -95.2653573548653 -1.2833408453267372
-94.13111614684435 -95.37006474978818 -1.2794510860803565
-92.60950616125733 -95.31043260459063 -1.2756556020224283
-78.9281649934149 -95.85544224864758 -1.221561080150592
-77.49304518062971 -95.81671359125602 -1.2128570778945755
-76.16745021802964 -95.92659903131042 -1.204818833135974
-75.39037077477998 -95.40983392193665 -1.1986809030049297
-91.79721326191839 -95.7181551142406 -1.274761326164545
-90.63198539854751 -95.28514328689276 -1.271105197124216
-89.20795597186586 -95.38262213606843 -1.2685661684219631
-81.5351128072753 -95.64439778396775 -1.2386547182738066
-80.24397339107108 -95.72634189174926 -1.2295597411096575
-79.44055070298269 -95.57380227286002 -1.224292220670246
-87.98543562714208 -95.38250860594306 -1.271886465031644
-87.36777214201626 -95.0633660372804 -1.273104241012356
-81.63522986861877 -95.3553701369186 -1.2478706320819966
-81.6880741684683 -95.4557561420697 -1.2442248919503882
-87.59291117664365 -96.0173501683119 -1.27603392309496
-86.50453306040686 -95.29525968885827 -1.2749632999801148
-81.94613392894715 -95.4560961753453 -1.2565104733853283
-85.54023357795357 -95.51575757847023 -1.2767134699383087
-84.350775300934 -95.34078159383219 -1.275647255166823
-82.6646767811024 -95.52166492414707 -1.267466738320402
-82.30673164551776 -95.52536781764819 -1.2630298368311952
-96.92838307478968 -93.5694646593945 -1.281335712277235
-74.9700745872034 -94.42791118126873 -1.1942190625015041
-96.59659522030869 -93.40137171568762 -1.2808352263950118
-95.51395861171284 -93.61600915506364 -1.279097740522091
-93.73885430145607 -93.68043758975753 -1.2748114066938188
-92.35018536676961 -93.7583216300798 -1.2715316233416503
-78.39330410565753 -94.1098870883888 -1.215686006277234
-77.16839609936183 -94.16188439586806 -1.2085399939079946
-75.69311082486878 -94.44308735989227 -1.200077743554525
-74.98625650399515 -94.06316064265428 -1.1948409159400832
-91.36840116868855 -93.82167520229432 -1.2693488378294409
-90.55130314313669 -93.72609361237919 -1.2670180513804368
-88.63917336750747 -93.78015502618567 -1.2636731962897403
-81.21418807346589 -94.0067675297334 -1.2332561833835958
-79.8686344260784 -94.2351780421151 -1.2247695638192986
-79.23671730877525 -94.67050087825805 -1.2216926827951309
-87.64446293685076 -93.68231756148646 -1.2665248474172162
-87.11723751322963 -93.61018304344303 -1.2683300939092794
-81.4167279932645 -93.84984887551936 -1.244139502239147
-81.45669949638811 -93.96603757372222 -1.2397381591746663
-86.18970121223383 -93.71851474868565 -1.2699685435582733
-81.98830841918331 -93.30012585071012 -1.2566133946419387
-81.78453283652948 -93.9100040729964 -1.252968333537131
-85.18168854392113 -93.94344966091028 -1.271712019450058
-84.11186782932346 -93.69484259092317 -1.2703230269027705
-82.57201775468974 -93.72815433793036 -1.2636488620682638
-96.89783676780169 -91.75652127782753 -1.2774397455694686
-74.34044217321916 -92.70475370983215 -1.1883054974480878
-96.42523085751037 -91.95290767471663 -1.2775414889488574
-95.14610869446471 -91.9557451756889 -1.2746862147376494
-93.4916754478595 -92.02527436534741 -1.2705842576307946
-92.05899953484732 -91.98237808511679 -1.2667929218968474
-78.11453678251044 -92.42685787616603 -1.211399390740815
-76.80765435287242 -92.5459001537742 -1.2040178950984308
-75.39432281648438 -92.73441627044446 -1.196041613593692
-74.49487703096366 -92.5010531712375 -1.1899771448582654
-91.02831545228901 -91.83205588628432 -1.263815224152882
-90.09939202539641 -92.05959341779277 -1.2620032558164809
-88.2449356903127 -92.1239339184056 -1.258593737877949
-81.01614735915913 -92.3974996117321 -1.2295067270436453
-79.46419495336521 -92.26645426770676 -1.2189865374044935
-78.70970233036826 -91.73012217665475 -1.2136923376512088
-87.36712130583773 -92.09242554753038 -1.2613119387596512
-86.67737167272065 -91.62114106735075 -1.2620231029945708
-81.15129432639465 -92.04234264348744 -1.2384634675301296
-81.20934891342309 -92.3890952055177 -1.2353641177725256
-85.64446845534628 -91.97888191466673 -1.264576075566367
-84.57308128199139 -91.25636167618325 -1.2631072201137281
-81.83138252676582 -92.08801010572515 -1.2532814860889172
-81.4680078103846 -92.2429027124871 -1.2468850770414364
-83.84929300989022 -92.01553133840629 -1.2649021194305547
-82.30948120564437 -92.04507511573219 -1.2582285011883874
-96.74615926100583 -90.37644166946171 -1.2742841938148188
-73.93005015375824 -91.3407389395792 -1.1841616296232123
-96.05233869475097 -90.25546648910404 -1.2730726099030532
-94.73593134886974 -90.33678063356273 -1.270020075752715
-93.24093170497544 -90.4032410715292 -1.2662733566488407
-91.52124547963506 -90.39512758362463 -1.2616966050033942
-78.45124466487754 -90.07502611277515 -1.2092537757885728
-77.99218955827783 -90.85402505519677 -1.2079848369489772
-76.59824997990304 -90.7378556009926 -1.1998588386479445
-75.10157736503544 -90.92710191073579 -1.191650196910666
-74.16660638376412 -91.0011868070855 -1.18604208702908
-90.70471110705614 -90.1612167857573 -1.2590105615506995
-89.85489758768317 -90.40843819127008 -1.2573119925237128
-87.9408019439413 -90.3855056290744 -1.2535595812887448
-80.62570960522505 -90.7262530143443 -1.22362719535513
-79.3126808466889 -90.69195603374841 -1.2152217732505475
-87.12924395915456 -90.63498922053262 -1.2564797505193939
-86.38221648224705 -90.3508780333901 -1.2580045568893223
-80.94568133679356 -90.62452800633055 -1.234579096310969
-80.94773250699998 -90.66953649024865 -1.230015065118179
-85.32734341711921 -90.3803338508175 -1.2594833034808586
-84.30763736931384 -90.19033139295286 -1.259533016632444
-81.63846067068593 -90.66391206718626 -1.249038675408403
-81.31094945462229 -90.52996037271853 -1.2434365212064709
-83.45385597013488 -90.55126841184547 -1.2598180855431944
-82.16141750615137 -90.43297814581493 -1.2538641849004593
-96.62143343305854 -89.09650368461001 -1.2711966581238168
-73.33351613999362 -89.32463254608697 -1.1773413936444515
-95.92054442362628 -88.61265902667934 -1.2690881736621111
-94.4049952191905 -88.72587375581483 -1.2654786366911135
-92.74530297044012 -88.64901131994206 -1.2609517233793315
-91.20029492027786 -88.7156105480395 -1.2568556785194276
-78.32473769930488 -89.29259640228287 -1.2070760784546475
-77.61627086773572 -89.20456602849667 -1.2028949584481874
-76.2326858472247 -89.16895769791985 -1.1951260378125057
-74.88787415304901 -89.38287013586036 -1.1879428953083655
-73.66196015473183 -89.25055841473521 -1.180511652383915
-90.46997718475772 -89.05209434163464 -1.2557119526363507
-89.64975669009753 -88.79150537460896 -1.2527956957036686
-87.70951667200983 -88.76104598218221 -1.2486033122584086
-80.39220837314993 -89.07242597806973 -1.2196321000692196
-78.95906696184362 -89.06850395952445 -1.210137190591032
-86.73302819952326 -88.91615039390466 -1.2512899065287064
-86.16144973344588 -88.76654070596159 -1.2526225464647276
-80.70388891258418 -88.8954425271957 -1.2296347171812798
-80.81261597779577 -89.79812460559418 -1.2277033142164882
-84.99491945763938 -88.8343305551432 -1.2545557740802833
-83.93547489183732 -88.651692905637 -1.254353226478799
-81.51126726502564 -88.97321028308482 -1.244974763197153
-81.06316169463513 -88.81218204079062 -1.2384616149110081
-83.09101866691047 -88.6414480380232 -1.2531770011064525
-82.06779135476052 -88.87439229699639 -1.2495572062716258
-97.20819763985881 -86.65300835802324 -1.2672534777807214
-96.65550182340601 -87.33155474849224 -1.2670830608137196
-72.8067534812358 -88.2187652159257 -1.1729192391260852
-71.97840646683363 -87.57386865160991 -1.167577012963092
-96.61252925996544 -86.3563659065652 -1.2662534308776665
-95.71972131109807 -86.94537438850836 -1.264894229874562
-94.07917687198436 -86.95623829578223 -1.260588700299691
-92.56890212574956 -86.98447510055739 -1.2566178839079751
-90.97276885702799 -87.21761745999896 -1.2526804135430776
-90.02440748154275 -87.11060492946334 -1.2497997940320587
-78.1266548936857 -87.38921140423328 -1.2023755073078006
-77.20941029984073 -87.57241647204953 -1.1976383304264
-75.95549687304478 -87.60505196692762 -1.1908308448244749
-74.46478290028793 -87.76563440922989 -1.1828877878703195
-73.12300083258786 -87.52066387416404 -1.1748298767823822
-72.18026314331351 -87.09165260616814 -1.169165165348457
-89.0607346018844 -87.14198915555012 -1.247160575319286
-87.40907208839207 -87.1485203446965 -1.2437904676317488
-80.39994763312778 -87.16619440996571 -1.2198507418893134
-80.03680063922053 -87.39221675955758 -1.213755002089936
-78.77895143198238 -87.57443850044987 -1.206304836509122
-86.43877975792365 -87.21999002170318 -1.245762993916926
-85.77131733538965 -87.08705264615514 -1.2473273771138347
-80.4789528190824 -87.32110138697242 -1.2254209485567726
-84.62884477613746 -87.15013286733243 -1.24919619075734
-83.45579848119984 -87.1298774271265 -1.2490099584079664
-81.37632943101033 -87.12507443620555 -1.2401864635327318
-80.8538490968509 -87.43295682487593 -1.2342586677323764
-82.59146083997237 -87.3374960888446 -1.2479579355908705
-82.04592790773827 -87.57043248040246 -1.2461669640475106
-98.53193148231593 -84.9823264452718 -1.2684048539941255
-97.6901389988976 -85.56683351326569 -1.267300758837568
-71.04313325476588 -86.330785187611 -1.1618856835123679
-70.04946174244499 -85.94085083260524 -1.155949652468558
-96.71705282118096 -85.12115497292375 -1.264340526297821
-95.49768087488462 -85.39193627323723 -1.2608951646470905
-93.9160554506079 -85.37257430020011 -1.2565775891036874
-92.30512131628277 -85.39110643099059 -1.252189480626389
-90.64837179118766 -85.466003910524 -1.2476129379904912
-89.48984846144157 -85.30994521054733 -1.2439753259751736
-77.97667605165292 -86.0138189130859 -1.198941690726709
-76.9291473591881 -85.92582370634443 -1.1930476998555477
-75.71605176254819 -85.96205111729992 -1.1865557911831477
-74.2252242514241 -86.06412577405946 -1.178674315550255
-72.73949380814894 -86.08640913914212 -1.1705363235879849
-71.67893902895838 -86.03823593161815 -1.165136038880133
-88.64551431757312 -85.4077406067156 -1.241831197752175
-87.08826980015016 -85.50263619080889 -1.2387383781900188
-86.05495742218162 -85.05339363620561 -1.2387355451943585
-80.14888882852519 -85.5383518986298 -1.2151914885508166
-79.79601290588211 -85.82827685307335 -1.2094302985722303
-78.63908529277823 -85.74667169634084 -1.2020680317688974
-85.42726643308683 -85.39638321300212 -1.2418467524679215
-80.25706696427409 -85.61968515801776 -1.221190988238759
-84.2823336249404 -85.62035582209089 -1.2443128568225195
-82.8894001993229 -85.5887086227686 -1.2430511076057733
-81.29357000995847 -85.5058369765391 -1.235834248025798
-80.63368688608192 -85.72189377840684 -1.2296102509924298
-99.7043421841634 -83.3802296000579 -1.269915788044365
-98.3886354622405 -83.60378865012486 -1.2669172685201997
-97.4750618424219 -84.05888906333779 -1.2649258839790491
-70.46333079191122 -84.81974148483157 -1.1574807552367765
-69.57748687969617 -84.61930250389045 -1.1527690233333754
-68.2941999539313 -84.53880327103607 -1.1451782009462161
-96.7849109050695 -83.53658482560132 -1.2615495195547464
-95.3012451035201 -83.73670189460698 -1.2569803262095616
-93.58046043715403 -83.75633703286707 -1.2521832532364015
-91.91759923241032 -83.76404886711161 -1.2473420553875758
-90.29182955444294 -83.7467050232435 -1.242508621665529
-89.11547622724358 -83.8452548698671 -1.2393763890719214
-77.72533972352855 -84.11744675628285 -1.1939115313311768
-76.55979000535443 -84.26114780265488 -1.1878905954587888
-75.2134670624407 -84.34053758617695 -1.1809265332207115
-73.8959425467259 -84.33446898099356 -1.173922698397791
-72.51326409416455 -84.45015330843762 -1.1667329946248686
-71.0799589763393 -84.35085422917317 -1.1595471455949926
-88.27159876497127 -83.83447985475948 -1.2368851843998958
-86.94381337022172 -83.95170452116598 -1.2339219947487063
-85.79274950699785 -83.5848294135878 -1.2337578351058565
-79.9341824412676 -83.95221182816086 -1.2104389016366466
-79.52156514322748 -84.07521305834669 -1.2040455480843997
-78.38822083825889 -84.13736730200347 -1.197487839472098
-85.0553906252789 -83.73301959088049 -1.236404659206589
-80.06867323145107 -84.12011969153002 -1.2169830495583944
-83.92688692029486 -83.82656039443512 -1.238383441444125
-82.81239709212458 -83.8868729622667 -1.2375859074324098
-81.19982551798503 -83.86419269736156 -1.2310407573581001
-80.41712858527289 -84.04773830812285 -1.2244746167409375
-101.06955734198831 -81.62733941942903 -1.271373762498112
-99.72253940100165 -81.95214140504989 -1.268283445462356
-98.18227515691265 -81.90197353775118 -1.2632092508800485
-69.14354415719262 -83.03905647045846 -1.148348131302926
-67.8058728386937 -82.9674070035693 -1.1419482955865654
-66.49551283453675 -83.00897614743165 -1.1349614507088448
-65.43376927618839 -82.40369825164044 -1.1280710081336716
-97.36383978019592 -81.79277058547801 -1.2601602069882814
-96.48628482105786 -81.95833890070523 -1.2574397660388106
-94.90398598556054 -82.03094554400009 -1.2522704309107051
-93.30823663747302 -82.10913469572174 -1.247656832382402
-91.4959810571249 -82.06927431425939 -1.2421100656477737
-89.99892331547528 -82.09276246246554 -1.2376262704965821
-88.6471342462896 -82.40402606051535 -1.2343558020485688
-77.51845436922885 -82.53591457888714 -1.1894518889183991
-76.28644376688528 -82.58212711526448 -1.1831167103583824
-75.00736796369509 -82.70211025467962 -1.1767042004128396
-73.57246344936777 -82.87099114464323 -1.169540110341505
-72.08249442264457 -82.76280677037806 -1.161558566798162
-70.72363777937709 -82.9928970159016 -1.1555670557550144
-69.73506650203115 -82.59688528865784 -1.1503292481417564
-87.76165326672265 -82.29673399881125 -1.231450675153166
-86.51941265340709 -82.30865485830668 -1.2285251520074512
-85.49588495168985 -82.10230676464327 -1.2288467728334465
-79.71961830659993 -82.3414434824588 -1.2054051173500366
-79.24170485391244 -82.65531700651829 -1.199280472040901
-78.3604883841032 -82.8189086300715 -1.1945168336888528
-84.68918152731088 -82.28720216624748 -1.2317787194436847
-79.8799230404353 -82.30814946642036 -1.2128469003028801
-83.72927476102065 -82.49122206199183 -1.2339203564987153
-82.41034245149336 -82.35834638459883 -1.2317601305200165
-80.86653791159347 -82.3631191418352 -1.2248793508100402
-80.26391170785462 -82.49227154139301 -1.2203498761659834
-102.37069437791628 -79.97311899003535 -1.2727351256371824
-100.84744929626875 -80.27184526935704 -1.2691098005172512
-99.31357740768128 -80.2894616969614 -1.2639948905061313
-98.17921875634875 -80.46358037641525 -1.2603941763542397
-68.41764073315615 -81.25034292182376 -1.14192319175818
-67.52781254209445 -81.38776850466618 -1.138043421375393
-65.96385877487714 -81.38099605396644 -1.130735099490822
-64.68609170341917 -81.4691743747232 -1.1239691613339269
-63.4900736081799 -80.7801306264997 -1.116213204730099
-97.33578190695178 -80.3400764936013 -1.2572009128718247
-96.08992730919701 -80.34025285025012 -1.2526792332147483
-94.64221964581591 -80.32166704822806 -1.2477791651217278
-93.0300412892248 -80.44309348569305 -1.242913882155662
-91.30663587648557 -80.54968493327898 -1.237931480240301
-89.7290489734397 -80.46485140023728 -1.2328797502188835
-88.06453052323707 -80.58884294429208 -1.2280210999550119
-87.06409060846282 -80.28467860253501 -1.224240580880166
-78.31282903384133 -80.61854965482975 -1.1895420195231907
-77.52605788178703 -80.89726055128587 -1.1860423298643816
-76.07739127931816 -80.81912934453064 -1.1784743882965485
-74.72531670640309 -81.01641657193741 -1.1719207168079873
-73.33703723898283 -81.10430129032738 -1.1648914902840835
-71.72821197590319 -80.99379922274339 -1.1567357067020754
-70.30013628945404 -81.19159952743566 -1.150268119958178
-69.2600485930749 -81.26604865002498 -1.1457928065435878
-86.39254713154224 -80.65531922045263 -1.2234373461252541
-85.17014528234833 -80.60634170920532 -1.2239679015874014
-79.4981006384387 -80.68000514868942 -1.2005364322453573
-79.0608959151159 -80.85620186351254 -1.1943241701275908
-83.99225609525197 -80.67032276800644 -1.227127736786406
-79.714743623334 -80.70075170392658 -1.2091503666505177
-83.19162843854332 -80.74739904863806 -1.2279949604418743
-82.21312657673852 -80.51863971910983 -1.2254447227988141
-80.74129230849046 -80.6767627319558 -1.2196887788717583
-80.12769899823736 -81.15533583367645 -1.2166771783271446
-104.55410889169566 -77.71824008525184 -1.2753953118487782
-103.56486756788512 -78.31645049527702 -1.2738424504153696
-102.2134752254048 -78.45721659704381 -1.2704908262920467
-100.5860585480739 -78.43060846364402 -1.264779282911979
-99.02593732789876 -78.68512094566324 -1.2598226441513167
-97.65146414562061 -78.41724662988386 -1.2543022907677785
-68.20166209614109 -79.67873236462357 -1.1379808376001495
-67.07965092326312 -79.68714278312365 -1.1329924674661709
-65.58751028065925 -79.76464760910666 -1.1262889936645282
-64.22082017437535 -79.71222975502707 -1.1199150191204486
-62.7842343846464 -79.83171905273429 -1.1126327114576715
-61.76306233835041 -79.4106127352079 -1.1063486992802811
-97.12639441798741 -78.7581422677072 -1.2531017141696972
-95.80150531393213 -78.6909368451435 -1.2480757464116123
-94.28811936368267 -78.75336745038366 -1.2454113151863544
-92.62679838810614 -78.74685692605594 -1.2376792023184955
-91.21777318301795 -78.9671462577039 -1.2338937152604608
-89.46639417713604 -78.88168830032835 -1.22828668774622
-87.79113000985562 -78.94076174309774 -1.2231922734952834
-86.4679210258941 -78.68150773744541 -1.218437978167817
-78.29496025253519 -79.1248966633378 -1.1863142537574325
-77.24227617778539 -79.17451117237202 -1.1810651702019115
-75.67732864095923 -79.22643611051411 -1.1732211174032587
-74.32961380917297 -79.31572639951676 -1.1664864593110624
-72.94279538088608 -79.45915420578098 -1.1596201209858512
-71.17242040159638 -79.54086118347374 -1.153601701420626
-70.10726292083594 -79.45921965859895 -1.145937488305331
-68.98441979983296 -79.61966006697149 -1.1413125219690832
-94.07170534419278 -78.04402075689397 -1.248472423620569
-85.84470677552511 -79.26160328388806 -1.2182513550031413
-84.95677009688576 -79.09453949252152 -1.2186378782521416
-79.28334150776094 -79.06174326784989 -1.1960661302706186
-78.95473402432476 -79.2781502665112 -1.1903248793032999
-70.58344974872232 -78.9752856256664 -1.1555405233966032
-83.7099949221882 -78.93004905363784 -1.2211299996638876
-82.60268686736973 -78.44031898217185 -1.2198537102903853
-79.95944805821271 -79.06380444393602 -1.2107237354865512
-79.52711384067199 -79.09751940164203 -1.204925255373469
-81.93195933410897 -79.05572287292314 -1.2201072175591212
-80.6912624703719 -79.0310758885484 -1.2150426693498935
-105.85621334955422 -76.07764645474774 -1.2768041489853263
-104.93739606723 -76.78560011077205 -1.2757391623055774
-103.3850247886231 -76.84527641201066 -1.2714446311492245
-101.76841116443904 -76.91535086014852 -1.2659234156915242
-100.23500337563522 -76.9790272492035 -1.260646921140347
-98.64425515247281 -76.95364240077878 -1.2548163808726953
-97.29139269054009 -76.94879831628354 -1.249822953085939
-68.10603974834909 -77.97863838349093 -1.13414302440401
-66.73724146638077 -78.01619065762168 -1.128187020690598
-65.31380051091429 -78.03388474108222 -1.1219172001339581
-63.920273435420796 -78.08050704782532 -1.1156803872404515
-62.280468576718015 -78.13635666206144 -1.108261721269352
-61.012178452285525 -78.3066792890149 -1.1018937552577173
-59.82046243286379 -77.76432117172382 -1.0947447638936243
-96.58376625332522 -77.01563753314655 -1.2473589691919458
-95.40439430766473 -77.14682257156981 -1.2432565947537373
-93.9533333900027 -77.09802747388306 -1.2409656891105574
-92.38270273189079 -77.18438642586841 -1.2332014938469777
-90.67566571352684 -77.09395866109664 -1.227724229235422
-89.03155409364147 -77.20363461571866 -1.2228654163117914
-87.51490414029654 -77.31334514754627 -1.2183835070409268
-86.00288398150563 -77.25640640235187 -1.2134603471495378
-78.22792880352611 -77.5584710740223 -1.1826530486799027
-76.89947625441236 -77.59160709711804 -1.1760311412438256
-75.49925966803164 -77.65354456457527 -1.1690536661067576
-74.08512257245647 -77.87575217273756 -1.1623098338109363
-72.63439629731167 -77.82452644653144 -1.1547521017548816
-70.84292333059531 -77.81355202987125 -1.149566095559052
-69.82305518393751 -77.84603786978238 -1.1413670152876974
-68.77576969268173 -78.00066387011024 -1.1371353271126428
-93.67807887170596 -77.1124201378471 -1.2451199256854937
-85.37125747298779 -77.74180645910403 -1.2129830982123997
-84.43077194315947 -77.16757116927688 -1.2126172972071356
-79.0932178819596 -77.43821375304215 -1.1916353177651582
-78.91442166808245 -77.62790457482777 -1.1866434759687514
-70.46907029661585 -77.99365766359739 -1.1532208061718374
-83.48527860482297 -77.37769243952056 -1.2157942727328148
-81.95590799762688 -77.29009571937816 -1.2144160141467557
-80.18929270809734 -77.39838549366776 -1.2075495724076892
-79.31959543686943 -77.37217230856696 -1.199597530267693
-81.39741307769954 -78.07129868069057 -1.2152841881511427
-80.92580520866282 -77.91388562034275 -1.2129359459556683
-107.15436542985113 -74.42987018632562 -1.2780542220321087
-106.19301329950027 -75.06319691175412 -1.2766428472166416
-104.55398956972502 -75.10734660587666 -1.2721336577028555
-103.045432203969 -75.13272021832097 -1.26687180821129
-101.50643765209782 -75.28157571111888 -1.2617042740211273
-99.90940297036401 -75.430610746949 -1.2562010367088683
-98.31073543799327 -75.3654012102163 -1.2501728129434653
-96.73661931746068 -75.24937027597879 -1.2440386841509494
-95.41384100083712 -74.99491995152192 -1.2383991973805095
-70.11360024026989 -75.48775692902557 -1.1374001357129486
-69.38977489648663 -75.87924304142865 -1.1351827423337246
-67.9392637999097 -76.2342343290413 -1.1297797399849527
-66.50997558646868 -76.51687050511443 -1.124163804757893
-64.97968912807397 -76.40940993428903 -1.1172147529628942
-63.496820530089586 -76.46292033227131 -1.1107532481538782
-61.97942705106602 -76.53694051729586 -1.1040486324909866
-60.59752841438611 -76.60912131530246 -1.0978887702757627
-59.17390293109743 -76.72827256642626 -1.0908635270370628
-58.04633772860311 -76.29733299386848 -1.084091270559657
-95.22973974315354 -75.68307037584977 -1.239271257863689
-93.60166603056678 -75.44111780927257 -1.2364607730754458
-92.13605573352679 -75.50630118061605 -1.228380583406109
-90.49193684267782 -75.66478667178013 -1.2236787187105598
-88.78150645969691 -75.66163409260093 -1.218280570454452
-87.3097985111592 -75.70594515213672 -1.21372571603998
-85.66858613093807 -75.68280536440443 -1.2083836311356857
-78.64894387686614 -75.12527448122712 -1.1797467808789959
-78.06575671652325 -75.86824144414271 -1.178073857389762
-76.71021136777706 -76.01031192409079 -1.171635636131625
-75.08437067695233 -76.01068470175525 -1.163470697674755
-73.74911890253875 -76.08693791686102 -1.1568924493097053
-72.27699327490276 -76.04228453888678 -1.1492680017573063
-70.46023978553298 -76.2054955891762 -1.1445570289454599
-69.70267609700167 -76.51779508281284 -1.1379306122912807
-93.34427800945343 -76.02060912768066 -1.2414809746221611
-84.03217934772132 -75.60040770085988 -1.2074828274995713
-78.9362831889465 -75.91646362059736 -1.1878417320375905
-70.3138071776719 -76.24178313215606 -1.1488648048157015
-82.97192874679679 -75.56036347563207 -1.2096226071913028
-81.57641739496304 -75.67467946078725 -1.2079548087202
-80.15853626290549 -75.82959809160225 -1.2027406274449215
-79.15760946202732 -75.76854966209484 -1.1948776735801963
-108.31200523430174 -72.86932766057627 -1.2794515485864615
-107.47752446986928 -73.36354383336551 -1.2780714482021704
-105.66707613230943 -73.42601720511792 -1.2727352917386145
-104.28944948893329 -73.53306550706935 -1.268052185023615
-102.70787294998749 -73.56419093281923 -1.26246100204518
-101.24187032598003 -73.72432156760986 -1.2574456569257622
-99.527631199184 -73.62341396193703 -1.2509082269614746
-97.99334294443048 -73.6211040535257 -1.2451303331519528
-96.52107793272243 -73.72926750905422 -1.2397426342379927
-94.96064732617849 -73.91497080370868 -1.23418241906546
-94.07320029145744 -73.61355817360231 -1.230060641893462
-70.02829754108713 -74.65775722987077 -1.1351968461209827
-69.20874337502607 -74.617272843043 -1.13160928332839
-67.63729258459648 -74.6957824199575 -1.1250930992476458
-66.19030296230248 -74.84375739547573 -1.11924755590975
-64.62277174333094 -74.7614735624553 -1.1123074428522686
-63.191218921569785 -74.66690989077946 -1.1058329840083194
-61.786072556042555 -74.91403233805681 -1.1001082856238382
-60.18712683607445 -74.97754502106247 -1.0930622245635853
-58.683724324253966 -74.97154229892593 -1.086237390235043
-57.307451370080805 -75.14095421491973 -1.0797753636813607
-56.180963625509335 -74.68882870017946 -1.0731183647439089
-93.2557643392176 -73.77587627811545 -1.2314277345662061
-91.79969088310828 -73.76344875665475 -1.223059957373007
-90.24233118779405 -73.89754317933394 -1.2185436184757306
-88.62599503427178 -73.86469913312717 -1.2133096795960039
-87.0647181652984 -73.99549008504017 -1.2085780765650234
-85.43112339005336 -73.97007063553946 -1.2032336418745389
-84.35976091206824 -74.00433949749932 -1.2004758128248714
-78.52873974260105 -73.95559551499163 -1.1766124774927267
-77.82209490406505 -74.21678341095004 -1.173124533143247
-76.30581847980041 -74.25752821276961 -1.1656859527473957
-74.91408804047643 -74.31480094778956 -1.1589339099110054
-73.55506731925401 -74.45032811140058 -1.152428573231809
-72.11794620538633 -74.4744959798241 -1.1451675724087094
-70.28244289054908 -74.54673629736165 -1.139663780947953
-83.6750553538388 -74.07072546468346 -1.2022899886627059
-78.78057168173825 -74.30466864873789 -1.1841968290855125
-82.61061817446061 -74.09925955337219 -1.2044383685011482
-81.54766453038117 -74.13564752377856 -1.2027973204989193
-79.91609263795634 -74.10151653396719 -1.196292064602733
-79.00824893268867 -74.06712418072999 -1.1897292637838395
-109.57500232141575 -71.1104768149649 -1.280837608459932
-108.68153679267435 -71.6528715331442 -1.2791410768928122
-107.09975964930342 -71.7875894494218 -1.2745316703173541
-105.42776221995516 -71.74507970159526 -1.2684728981689697
-103.88577779068527 -71.86049224187065 -1.2631440242017722
-102.34504235945438 -71.886811615686 -1.257564092603256
-100.78410836304701 -71.97985738898822 -1.2519862039321976
-99.35520120394675 -72.00881415788331 -1.2466545718645405
-97.8064808010751 -72.00596136769889 -1.2407199329264436
-96.24017024666846 -72.13770347815249 -1.2350128552508624
-94.60399595283197 -72.0958166381543 -1.2285886899240113
-93.28938773064068 -71.89551940532986 -1.223273310887675
-69.9807028827911 -72.68129321906258 -1.1308100807456791
-68.85571403464449 -73.00951211482625 -1.126483915688833
-67.43139237867518 -72.91654807532205 -1.120259732487859
-65.85555385528339 -73.01365937541975 -1.1137747937341258
-64.32396033758185 -73.15386312604923 -1.1075526494995425
-62.73796423840301 -73.10564882277555 -1.1006351637949978
-61.34285117811086 -73.25089340406919 -1.0948348627302358
-59.96300937102147 -73.28139353818916 -1.088793464887983
-58.50369208780555 -73.39405072592541 -1.0825006784652575
-57.01853699444486 -73.45660576773375 -1.0759324648555333
-55.53633906009729 -73.66774692524534 -1.068892973259133
-54.26094392826609 -73.15295755816116 -1.0619468551243767
-92.97017008236317 -72.190433887122 -1.2269076884957053
-91.45914702325068 -72.14272494131082 -1.217964223086167
-89.83957446913129 -72.22117367678874 -1.2130874107380356
-88.38385112000923 -72.28659563929861 -1.2085910121022438
-86.63891393386456 -72.34045555163443 -1.2030172227439846
-85.05779889054145 -72.33357597597364 -1.1978526367099915
-84.01767617760342 -72.35661523761148 -1.1950988872225397
-78.39319221876418 -72.68000764199509 -1.1731470588003474
-77.55535604260203 -72.65246834347819 -1.168272337901776
-76.01582764606523 -72.72749009824373 -1.1608489917788165
-74.71426574786166 -72.90173393221654 -1.1548449399892233
-73.15065979512354 -72.90561597329624 -1.147050531049859
-71.8328096523742 -72.97436963456101 -1.1405002964857591
-69.92223651318345 -72.97605042667261 -1.1353101109615777
-83.12398278612318 -72.37401236461011 -1.1969123899842138
-78.62536543193015 -72.46448146448111 -1.1798087643781516
-82.27057929466883 -72.62237293274835 -1.1990691579906712
-81.32467018762189 -72.42262587986488 -1.1964802940679804
-79.70143290027909 -72.40007113969153 -1.1900308548330798
-78.93427203651298 -72.80224602063294 -1.1862985384048472
-52.41587504178844 -71.45751190965173 -1.0489114118713496
-110.89316873336774 -69.45223396586113 -1.2822234984550742
-109.81020574599724 -70.01990406339446 -1.279990452859142
-108.25414775427612 -70.10583922110347 -1.2752494836227828
-106.7884508311364 -70.12364664038454 -1.2700152180298254
-105.22054917540785 -70.24489965468362 -1.2645834741120285
-103.60231573054708 -70.14513553254511 -1.2584537058563907
-102.08648014688069 -70.28366806343568 -1.253107858033064
-100.46222904822326 -70.23799058418572 -1.2468435012221806
-99.04044090258566 -70.53572197201052 -1.2420815434020072
-97.4646002960611 -70.44569128720065 -1.2358292120746204
-95.96712712517984 -70.60951254856641 -1.230416425946336
-94.35444426959691 -70.4770909249152 -1.2238458403056431
-92.5219973724194 -70.63170818953814 -1.2176570779434879
-91.83125115395524 -70.45558099405554 -1.2148889688434683
-70.89863100790072 -70.92172781269909 -1.1313096172912138
-70.02122368855598 -71.32306044636012 -1.1281745761175466
-68.59538629936236 -71.34067828635524 -1.1215904360131463
-67.13147359162764 -71.35352916122534 -1.1154554357050877
-65.57626674282417 -71.4334205645166 -1.1090736613528904
-64.06328232586364 -71.55226746175424 -1.1029021764750178
-62.68171916136322 -71.72068529387886 -1.0973813232737921
-61.065597567704444 -71.65686664289112 -1.0903062504221248
-59.63152687039384 -71.67103161528549 -1.0841055259291417
-58.16168270171615 -71.67241717404309 -1.077624228321188
-56.70917938767146 -71.75307756096137 -1.0713168614389588
-55.291015077623264 -71.88066034105559 -1.0652232537181363
-53.72483901300972 -71.99471772379044 -1.057889433981582
-52.540937949077986 -71.65118299286367 -1.051391400196658
-92.70121934264041 -70.49892722319997 -1.2224073170493903
-91.25087982642778 -70.67092280738474 -1.2136366277574355
-89.60921166628111 -70.62474020866246 -1.208363090613926
-88.06399305024695 -70.65162510174554 -1.2034707807150689
-86.46618503230366 -70.7184863363401 -1.1984093375115978
-84.84481725552219 -70.71652205905305 -1.193086079526841
-83.74470124558499 -70.88300752219958 -1.1903353507889558
-78.1873689510016 -70.9086647545393 -1.1681836826738812
-77.19360475856122 -71.01751008431442 -1.1628452517043197
-75.91345984320506 -71.0375084884801 -1.1566140112125047
-74.36112164535075 -71.01874651485903 -1.1489589471917512
-73.07387285010121 -71.2578084286001 -1.1430771489849776
-71.58642099853796 -71.2143888467869 -1.1354649118359774
-69.47835103034713 -71.37583336881923 -1.1308173352533135
-82.50810403722632 -70.86111117565856 -1.1920895097405804
-81.39216930189743 -70.57986145198744 -1.1905330420207798
-79.19182581262406 -70.49961670212231 -1.1815553309031814
-78.51060463300671 -70.9968446890825 -1.176088799649662
-80.71127603041714 -70.9040914921655 -1.1897042527059656
-79.69120364391418 -70.9054490849783 -1.18547100029069
-112.16462051609267 -67.65441105645726 -1.281966214026175
-111.48338622776123 -68.59248349286926 -1.281438687447573
-51.709183549550815 -70.83124100470278 -1.0445419574071664
-50.53153380777039 -70.00232509256728 -1.0381644343131051
-112.07645135210687 -67.8968135719133 -1.283437913054152
-111.10375778674111 -68.26109846855978 -1.281352344800131
-109.52263793970498 -68.39827313654854 -1.276317045820111
-107.93455820004849 -68.3335399340004 -1.2704358491716161
-106.4907911253143 -68.4341754910771 -1.265375023394371
-104.91445155101138 -68.55707707009577 -1.259870699027682
-103.20718351029812 -68.58873107031381 -1.2535385707874265
-101.82380820036084 -68.59680576713258 -1.248298638495167
-100.20105554544378 -68.73139492241089 -1.2423977263296986
-98.71463879346565 -68.65215703612937 -1.236511534627215
-97.05404672882739 -68.91236535264946 -1.230680537675404
-95.58909701985272 -68.72010497448859 -1.2245215809679397
-94.12428156043109 -68.92190852799132 -1.2192856205135552
-92.64015733504775 -68.9421495522518 -1.2143384256639305
-91.37544867433796 -68.8642576684774 -1.2095104617019254
-70.87050552344962 -69.52972418309533 -1.128194360468397
-69.94565033762362 -69.81564671298085 -1.1245569033378842
-68.30351506441146 -69.75646982031705 -1.116713273386899
-66.86371949507193 -69.86088251956575 -1.1109113080242397
-65.36780751611455 -69.83389393377908 -1.1045651778954158
-63.84556531498766 -69.87571872356459 -1.0982439406059108
-62.38255071854896 -69.87073236545716 -1.0920223767743171
-60.88035977399824 -69.95887371262901 -1.0858043548743748
-59.447097395343896 -70.15575631004731 -1.080095720044361
-57.875399384825386 -70.06819098432041 -1.0731215920660166
-56.44124513163419 -70.13594502802674 -1.0669557722240535
-54.933377199420946 -70.26800056773554 -1.0605271039695539
-53.44912066765217 -70.20390207386741 -1.0538009651439757
-51.956858661592804 -70.37016865195352 -1.0472762126784243
-50.67306292260915 -70.06019717837543 -1.040477810592317
-92.38474381825606 -68.8464732321882 -1.2180350925292998
-90.53139197419628 -68.93860287132267 -1.207060238599659
-89.27464901286478 -69.0106656479884 -1.2032419394583787
-87.79353942196818 -69.05115020458136 -1.1985578026836732
-86.0064707058921 -68.94714081245812 -1.1924379287316513
-84.58439242666576 -69.14047386169867 -1.1882780078400277
-83.30060980802786 -69.0610721568591 -1.1844144953077322
-78.0466536796867 -69.45524640653171 -1.1643860648118374
-77.00783627020031 -69.24292190633332 -1.157977136467178
-75.52422186894337 -69.50288560676424 -1.151271785834475
-74.139733758523 -69.5601739270532 -1.144609876764498
-72.64618500368084 -69.61097969996892 -1.1373248265475835
-71.51070065874673 -69.63309133129235 -1.131674224590065
-69.13587216666014 -69.61743063086165 -1.125956536668271
-82.31773584766576 -69.18425683920123 -1.1858860107336138
-80.81981956470001 -69.13646868308406 -1.1841513016727436
-79.39176324208591 -69.21037468844159 -1.1787311313419977
-78.32693081915357 -69.23451609004114 -1.170254124785502
-113.4296638726055 -66.12650628421505 -1.2838202696455416
-112.73502993743031 -66.65918519958421 -1.2820258545317622
-49.941874906262754 -68.9112770689004 -1.0333312862122739
-48.98492594672781 -68.53183388588522 -1.0286615352560136
-113.30961692712333 -66.13021142019551 -1.2846248464429617
-112.29803231738288 -66.55399707591172 -1.2821350701207839
-110.74135823116603 -66.70864230200976 -1.2772240194653606
-109.07448872807443 -66.69878223072071 -1.2711632318472266
-107.59696621385157 -66.68399121462491 -1.2657189733975571
-106.08726517560228 -66.91963388818269 -1.2606491909639608
-104.62515562603366 -66.90790840496406 -1.2551175437364424
-102.9381499305398 -66.9971249848071 -1.2489081076718165
-101.48743348438701 -67.00686657154148 -1.2433813730925052
-99.98482530809773 -66.99063317284498 -1.2375697754334807
-98.40377143914398 -66.99897199354326 -1.2314536289770865
-96.9489672806295 -67.14618062244799 -1.2261002033019544
-95.38522134718376 -67.11483764762531 -1.2199198410017633
-93.88874945258411 -67.16763933543635 -1.2142223183456136
-92.5177968962345 -67.34264494327194 -1.210161158344158
-90.7383027125118 -67.2223862975935 -1.2033990923004276
-89.6992258355225 -66.67455139583402 -1.1987377341269554
-70.95111410663698 -67.8737769469319 -1.125008381064064
-69.3975611392582 -67.89185715577622 -1.1180550560583595
-67.99813415359773 -68.0580860118503 -1.1115102935824264
-66.4553525974583 -68.09693865340475 -1.1051054816336179
-65.01765817659788 -68.14593762780542 -1.0991778538720283
-63.51495237108938 -68.20822762784957 -1.0930411224830126
-62.074295485960725 -68.29132531730507 -1.0871819561353835
-60.5844653511165 -68.45584005441168 -1.0812290439343715
-59.07643950394762 -68.42583964467303 -1.0747256387853792
-57.55215172223336 -68.46160495391483 -1.0682760591701759
-56.1469773274346 -68.48681048800943 -1.0622762356642532
-54.54867924706578 -68.48435447361744 -1.0553055108386995
-53.11074384595789 -68.58263430453732 -1.0491503017624715
-51.68795078539099 -68.72514599309065 -1.0431102728201462
-50.190529548274874 -68.76470393327695 -1.0362134548381094
-48.90023920742006 -68.4316260296734 -1.0296130738167477
-92.04939049994185 -67.19476639873298 -1.2126104560592268
-90.13460359231351 -67.63403964755355 -1.2025284784372914
-89.03521270410684 -67.33582175101205 -1.1982561867928914
-87.47170653494547 -67.33370000947097 -1.1931701775531371
-85.95075259750145 -67.45184892673424 -1.1885115911866344
-84.2847857817871 -67.47474099761234 -1.1830921223064297
-82.86627471078339 -67.4055118594037 -1.1788016817132925
-77.84936562343725 -67.6061613422735 -1.1593861454061123
-76.73628260669172 -67.61582368930073 -1.1529629831994586
-75.21914904640539 -67.77845358402824 -1.1459547910333265
