# .PCD v0.7 - Point Cloud Data file format
VERSION 0.7
FIELDS x y z
SIZE 4 4 4
TYPE F F F
COUNT 1 1 1
WIDTH 827
HEIGHT 1
VIEWPOINT 0 0 0 1 0 0 0
POINTS 827
DATA ascii
-93.20672123093917 -79.86963984613767 -1.351532016157515
-92.43089402391102 -79.24172880866392 -1.3438150381864815
-89.98555273178881 -77.06197887131191 -1.3090410251274767
-89.7877290844906 -76.32740802821812 -1.301769182196452
-89.27295634526894 -75.78624247394771 -1.2912176231434722
-88.81296777613476 -75.12822646155746 -1.2815883591430088
-88.32834797247281 -74.40667917189079 -1.2711832841455757
-87.97235485264878 -73.84180355075557 -1.2632612421520564
-86.36299100079663 -72.82884397109687 -1.249295769168487
-91.25364971308345 -79.05473750202458 -1.339325755151323
-89.96951474775673 -78.45333781498633 -1.3313547329674793
-89.29506169507624 -77.83681705207977 -1.3219809763600168
-89.40611759437911 -77.19773022344609 -1.3132550891720831
-108.48166920040333 -90.69279454361548 -1.5383466257332539
-108.13283223352276 -90.79452164479851 -1.5331061655988618
-79.73043911420086 -62.57344513435379 -1.118779875552107
-79.33982016724235 -61.802549849419705 -1.1129604656607017
-108.2483251065606 -90.68346686322761 -1.538075245730552
-107.65438730257092 -90.57241037814183 -1.5312182856259304
-106.79424190262857 -89.99095586047822 -1.5212525055964086
-105.95108756010416 -89.20871338955617 -1.5106169456120755
-105.21258634024034 -88.50826478464552 -1.501172785627689
-104.43801649354285 -87.99769498229145 -1.4912068055774852
-103.7279414465409 -87.30165604251503 -1.481796655592492
-102.9045039106136 -86.58158769755522 -1.470797785582762
-102.2094719350033 -85.90563421983947 -1.461401455592186
-101.49662730441939 -85.18272077944064 -1.4516878356089682
-100.75168856195702 -84.44106115377156 -1.4414143056200308
-100.0551167734986 -83.87277218252528 -1.4317852055933962
-99.32894235078079 -83.10496630931304 -1.4216524126148982
-98.61983966261214 -82.4398317606296 -1.4118731376135136
-97.83299034640548 -81.96610622903813 -1.4031235705768688
-96.95223781561411 -81.03856582440017 -1.3918768976227094
-96.44439373194523 -80.11420810047635 -1.3860037347749972
-87.99397985760913 -72.10117904863083 -1.2614263726231543
-87.39582323201769 -71.34659671382173 -1.2509282516334987
-86.92558698172003 -70.76925132372462 -1.2410487966045032
-86.26572133106994 -70.05316707654049 -1.2307834836082694
-85.64757948024928 -69.3968795877683 -1.2212076656083697
-84.99540836235998 -68.72128422806247 -1.2111999556054722
-84.37135024433385 -68.09194360232607 -1.201567155596573
-83.72647544894788 -67.50370622554532 -1.1914869055667425
-83.1021602607641 -66.7442978413044 -1.1814942255885947
-82.46668295616593 -66.03055438015214 -1.171308035593259
-81.88693038001766 -65.36486095563095 -1.1619118055996918
-81.24187437702075 -64.5792168298196 -1.1512288856154045
-80.66491786535688 -63.951736831730976 -1.1414580656032047
-80.09583104136598 -63.3665348401262 -1.1317173855792741
-79.55082487630048 -62.64893167775339 -1.1214739855839213
-79.10147218904385 -61.73249484894066 -1.1131365256846557
-96.98729255037013 -81.78385122849458 -1.402118837609958
-96.5427610415281 -81.11282539519146 -1.3877076455177355
-95.96814996610459 -80.36877209193061 -1.3811819206043863
-95.09494754449318 -79.6614647345769 -1.3714342806159363
-94.22857160430902 -79.07360243148104 -1.3618217355953424
-93.30307690394837 -78.33877277123871 -1.3513834596011205
-92.45244133084118 -77.65806612864733 -1.3428098026283697
-90.12377438508425 -75.43482503025278 -1.3098485216182745
-89.8960347117833 -74.84096762155697 -1.3017487226296574
-89.37064702421875 -74.20496215328629 -1.2911098246025983
-88.90769849110445 -73.44469275609055 -1.2811675686257094
-88.45658883781739 -72.7594611928924 -1.27153304763308
-88.1354925390421 -72.71096404126682 -1.2651210035190994
-86.4578117201009 -71.33738793097396 -1.2492814796032787
-91.35313897001208 -77.57008861888335 -1.3385076455680667
-90.29850820295502 -76.91716264694638 -1.3312757605140237
-89.61598401629773 -76.4594962215623 -1.3223092227683586
-89.58635703473747 -75.86781069772756 -1.314133415577589
-109.17040398091562 -90.00880111308011 -1.5481368661284156
-108.82028210185165 -90.02712653365276 -1.5429260160189449
-108.3590835970598 -89.88292122384418 -1.5360786359241847
-79.17530247291951 -60.60031191697814 -1.110277275957794
-78.68251883524721 -59.61459790012095 -1.10243386608861
-108.97336546041778 -89.80975784790351 -1.5479406061825574
-108.40541681387178 -89.73187552717333 -1.5412180760709449
-107.67653216609827 -89.35540083855257 -1.5322374960013143
-106.73463783359999 -88.43971456152607 -1.520502936033948
-106.0358814282619 -87.83320595950002 -1.5115684060323415
-105.265640903754 -87.05117552030015 -1.5014833260589464
-104.50433730128925 -86.49372108469022 -1.4914010560200957
-103.78333496414798 -85.82820028359279 -1.4817531060214482
-103.01534913892613 -85.04070743692102 -1.4713546360433842
-102.30955964775548 -84.47014137734135 -1.4618228460193583
-101.65533350689667 -83.79140928434632 -1.452731096035679
-100.81886722575469 -82.91752679621531 -1.44096462605548
-100.1103395548058 -82.36374135070744 -1.4312529960229654
-99.47307128718822 -81.52877833152833 -1.422269865087031
-98.7224383081585 -81.03179598368965 -1.4120337430274654
-97.73262075432098 -80.1517455152818 -1.4011626980669587
-96.99384828721946 -79.60356299321401 -1.3913576000309418
-96.38149169635587 -78.8784640868691 -1.384475740104947
-88.38387117876768 -71.04389947218283 -1.267926617061467
-88.08037379295502 -70.72096954598892 -1.2614628810265092
-87.53858541513792 -70.05823022624627 -1.252175196034249
-87.00687843689808 -69.34003437245669 -1.2408576300176046
-86.45297293823282 -68.65154096209918 -1.232254079046528
-85.81833007935862 -67.96644055212093 -1.2224059360495918
-85.10917747197996 -67.22459630945662 -1.2114053160461793
-84.4141914955142 -66.32904320864772 -1.2005790960910905
-83.79599550414942 -65.87944159525054 -1.1912984760367966
-83.12747771792445 -65.19047186348894 -1.1808406060288053
-82.57096545837526 -64.58311950737549 -1.171985196029026
-81.93250275468858 -63.96158502922052 -1.1618153260071178
-81.28562011335569 -63.18175719790354 -1.1513471260254247
-80.70198061252447 -62.541522096511294 -1.1418391260221974
-80.12311258181087 -61.6977473377458 -1.1320750660732286
-79.53835734427415 -61.02073668005076 -1.122118156071759
-78.9168890856617 -60.413633557063754 -1.1110559160278095
-78.54089033450231 -59.77952965085633 -1.1039541160708752
-96.97922595685033 -80.38445485210248 -1.402311689022034
-95.97301679315733 -78.97123001866731 -1.3802132969927123
-95.20928740307068 -78.37404356354479 -1.371731190997427
-94.35752909672895 -77.57855787577206 -1.3621645370383164
-93.40922510956581 -76.88166432020148 -1.351293425024379
-92.48752710488995 -76.13197897207522 -1.342139539060156
-90.25721467061629 -74.00173678172136 -1.3104019940473848
-89.98587154919532 -73.43191857427313 -1.301352353032775
-89.47242189316992 -72.71337619190848 -1.291291653041347
-89.02011123589729 -72.03014741857672 -1.2816294270475797
-88.61185391289703 -71.48541578703157 -1.2729275070326003
-86.54079062093525 -69.87476927356256 -1.2488910400221418
-91.55621726273971 -76.0781056788303 -1.33793875199193
-90.62862134691677 -75.43260788206098 -1.3313133924478397
-89.92623643105293 -74.85143458305312 -1.321709089725459
-89.83467344767972 -74.22724229103879 -1.3152795880790678
-109.88908566902315 -89.0398987279499 -1.5587079266222919
-109.48525697260133 -89.3315728697016 -1.5524014564111885
-108.95934298625481 -89.18292687515331 -1.5451960363105692
-78.45431493193833 -58.182981933479866 -1.0986621164308625
-77.97982805749534 -57.6052766623975 -1.0927696164816407
-109.15167189882379 -88.96064584568549 -1.5508485164883614
-108.48174166612998 -88.51564106714864 -1.5426449064542478
-107.65782464670082 -87.62506539984274 -1.532176446504856
-106.82123078789564 -86.97321967482264 -1.5214447264805628
-106.13362425666035 -86.38726813476924 -1.5124009964707776
-105.30971995343293 -85.49277507438435 -1.501328276510454
-104.61471493245013 -85.00094642627542 -1.4920613564687522
-103.75278022458853 -84.20924535854951 -1.4804377464674345
-103.11932540431376 -83.61806080580317 -1.4717841064669708
-102.3660847813369 -82.78362863149344 -1.4611456564978045
-101.66698296655774 -82.20052993841183 -1.4514399864739598
-100.9503768306489 -81.50252399449963 -1.44152086647937
-100.23523777309377 -80.84773384351395 -1.4316112964723644
-99.54486849739496 -80.10166174112392 -1.4217456494928646
-98.81235121474515 -79.51158705379235 -1.4113779214578255
-97.84132850607861 -78.6752131460224 -1.401596843506358
-97.10212938316198 -78.14393863920847 -1.391597993461537
-96.31479063733575 -77.4264114524116 -1.3827849884947445
-88.57645805750637 -69.6571007891051 -1.2700861275091664
-88.17412233022915 -69.20566344316016 -1.2615707584706994
-87.42729546173055 -68.36679917417483 -1.2502465314891225
-87.19037274932133 -67.81637029349879 -1.2413092994711028
-86.58570015667199 -67.22182917656852 -1.2323756804660235
-85.86008167475482 -66.55282533554981 -1.2216161864461808
-85.22235075955078 -65.71202416239969 -1.211678186492869
-84.57418385213523 -65.04246759102756 -1.201659426487989
-83.96849394374026 -64.38340672322516 -1.1923003164932287
-83.26234981550976 -63.74740123263738 -1.1816385564657128
-82.62970796163289 -63.07145207196276 -1.1718487364672725
-81.96247035506217 -62.38675909355391 -1.1612815164558485
-81.3131613798772 -61.628781863863004 -1.1509067064696472
-80.78485686229702 -60.98218808715818 -1.1423818664879208
-80.0493623676213 -60.25523624961734 -1.1305125164628047
-79.52340228562792 -59.66261991248511 -1.121741746460418
-78.9463353572719 -58.89693185527721 -1.1119556164882294
-78.38397011806359 -58.347857832841306 -1.1022032164535256
-77.91276961172522 -57.39673172891732 -1.0939479365660216
-97.00096229976936 -78.7782163931084 -1.4025794554959454
-95.86023496759297 -77.35049482351715 -1.3779713544207028
-95.25084406214987 -76.69256930273764 -1.3711673684766685
-94.40595921274561 -75.98351722079546 -1.3615648064916266
-93.5593815870639 -75.33854047014547 -1.3515783914802229
-92.49115757314422 -74.6249316302588 -1.3409863574767382
-91.67709178080514 -73.7109858527989 -1.33637538035121
-90.40356659390297 -72.60741622451837 -1.3115378024768225
-90.1193562566029 -71.96121289726274 -1.301587053466489
-89.59068277508166 -71.34431568864747 -1.2918060714509991
-89.12257745855842 -70.47410037871656 -1.2819811025085264
-88.77803504678747 -70.12463060931029 -1.2747293704655647
-86.47855068274579 -68.20716375690546 -1.2489929495106407
-91.49950903739902 -75.03945430044881 -1.336782783271819
-90.92156340211747 -73.93416188812107 -1.3311608217819075
-90.26969235830668 -73.31485209813081 -1.3217227069739725
-90.0065587039823 -73.2353156011756 -1.3158538283799004
-110.71810251744064 -88.27515929536848 -1.5688965370489687
-110.12656538603046 -88.37999396066363 -1.5624507768895857
-109.68087083335963 -88.42664064855653 -1.5555466167380168
-77.59777847980453 -55.96119960491002 -1.0886882168796836
-77.34450751579038 -55.29299627616872 -1.082556536952082
-109.71479355821809 -87.92407844960147 -1.5582943169395262
-109.17325124837222 -87.56100584372832 -1.5514572469088186
-108.39262809639507 -86.91939162679691 -1.5414805668966285
-107.70193178519406 -86.26366894357814 -1.5325507269094722
-107.14865026662477 -85.88150204495521 -1.5253224268765169
-106.1113773743405 -85.0503379406318 -1.511517876843131
-105.36956856425819 -84.15755370537664 -1.5014189969017684
-104.64003266722023 -83.42434402854485 -1.4914883569172177
-103.98199771206403 -82.73279721238279 -1.4823540369364259
-103.25969486157223 -82.11962894327667 -1.4722633169136587
-102.4738829620017 -81.3665322095229 -1.4612933769141419
-101.74958722948817 -80.62595334324446 -1.451163216927754
-101.03440114478592 -80.06440693049586 -1.441148106891439
-100.40387518810545 -79.26673605964972 -1.4317867869370688
-99.66164854795164 -78.63994192909516 -1.4212123149086102
-98.96488938583857 -78.03328494542882 -1.4113104938877183
-97.99998092846086 -77.3013848290895 -1.4023001119211747
-97.17605650771684 -76.60055577986464 -1.391373231907271
-96.25215694501651 -75.96195266527923 -1.3812894188920615
-95.74337813109899 -75.20815518006349 -1.375675163999768
-88.96328172467373 -68.01420154463065 -1.2767793681221682
-88.69892776894247 -68.29015336348455 -1.2712412249310043
-88.21576512925944 -67.73490350621313 -1.2607102168825437
-87.6550504312319 -67.02689264312556 -1.2516216709074692
-87.28714764661802 -66.37608943356734 -1.2424793389146318
-86.69881749791361 -65.68600226250274 -1.231665677899857
-86.02677231698956 -64.83072868200537 -1.2214402769450239
-85.3704243935058 -64.33379541045271 -1.2120032869014126
-84.66559458430021 -63.56532239738286 -1.2014495069146969
-84.0147250072917 -62.81146574687259 -1.191487716935547
-83.29225936316824 -62.173139986978796 -1.1804762969017208
-82.64513639570937 -61.51499115056623 -1.1706507168973732
-82.04075164674917 -60.814562791385015 -1.161323826915324
-81.4565132616253 -60.12728728882615 -1.1521358369322139
-80.76013612688845 -59.76176101949835 -1.1413507568233314
-79.99828203089473 -58.60774388095647 -1.1289602769123825
-79.59558934935644 -58.26521446556082 -1.1225030168832715
-78.90419369552296 -57.41874558847104 -1.1110623269015858
-78.35744632395145 -56.73956519951854 -1.1018257169151424
-77.87129291892087 -56.17057451544679 -1.0935380969155184
-96.86581043168223 -77.32882229986156 -1.4026317519197977
-95.28673558733668 -75.21873931363885 -1.3708770679008033
-94.46106364452967 -74.61493281428784 -1.3622512439045773
-93.6475431716542 -73.85324494802185 -1.3511992859059276
-92.44572710716227 -72.96443520706579 -1.3396705339348334
-91.43779242722754 -72.40962748419062 -1.333106535765514
-90.51192015046581 -71.46604237691268 -1.3204846249885547
-90.59278497205784 -71.11355298728242 -1.3122820269274733
-90.24969691639377 -70.46426056225724 -1.301664187904711
-89.56762311300454 -69.60613101878978 -1.2912987659479132
-89.14838001788091 -69.04942871320722 -1.2818058729206203
-88.9048988080825 -68.94793042578195 -1.2762588748393866
-86.3007161276443 -66.93679610482306 -1.2496008798933715
-86.42835235722713 -66.2575059383117 -1.246410295027774
-96.00740057073828 -76.91488349368859 -1.4029555240470188
-91.32377951810899 -72.91033789662055 -1.3381637729205058
-90.94301763894762 -72.67607148024335 -1.3325418007765042
-90.5399681421841 -72.23744307659305 -1.3228438300106695
-85.40140610312366 -66.49899156676837 -1.2483362629958148
-111.40831607737725 -87.22583553960416 -1.5777450475318844
-110.81468772761171 -87.39895849984704 -1.571668887359966
-110.12009036180973 -86.75351883093123 -1.5635088173851919
-77.56205635312692 -54.237332018847056 -1.0882979573747602
-77.18259724532518 -53.896858155179004 -1.0814944773381314
-76.78714667656877 -53.14184262085827 -1.0732639973939149
-109.78902567247584 -86.72863133688507 -1.559275087307852
-109.14764280880787 -86.02666075609426 -1.5509955673471818
-108.4047237666414 -85.29457341265217 -1.5413526273680527
-107.67483969724853 -84.58904189048135 -1.5316406573797976
-107.13937379802933 -83.75483711948735 -1.5242691674758464
-105.96058867936883 -83.58840238435374 -1.5088071272154295
-105.42052327835225 -82.51221519894219 -1.5010274973739122
-104.72948312033056 -81.88186619174476 -1.4913772573649589
-104.10867134535779 -81.29762043050985 -1.482639107360782
-103.29680050460364 -80.51993771683638 -1.471269407360449
-102.58826289620042 -79.71845990914294 -1.4609898273888404
-101.92770611679703 -79.13969152977825 -1.45150071736806
-101.27808084333118 -78.46350309428489 -1.4420313073760922
-100.52903591262711 -77.75034806837246 -1.4312844173693806
-99.83798090853365 -77.166791503133 -1.4215154943444057
-99.23713810192073 -76.471287994772 -1.4122583343623134
-97.97217866471102 -75.75982465517521 -1.401962571364123
-97.29509760038128 -75.14277811985222 -1.3918885593428212
-96.40418902721159 -74.4522613851218 -1.38220081135067
-95.74952484986807 -73.89344742366632 -1.3751002063717965
-89.01024460334554 -67.39493591179126 -1.2769192533056115
-88.77275353052504 -66.78490987161223 -1.271633092377934
-88.32099118203809 -66.17466594814479 -1.2613898293512658
-87.77099084472665 -65.54928964858082 -1.2524518523550945
-87.42195510325534 -64.97504541414982 -1.2428783103313072
-86.88621468648161 -64.07588452673569 -1.2316313533688636
-86.19635863393947 -63.504316411318925 -1.2218328473398004
-85.46376787391388 -62.77001616129267 -1.2109366273362732
-84.82055507870905 -62.11580402295809 -1.2014159673368703
-84.1783178510215 -61.423305394487215 -1.1919025273487804
-83.45940519176821 -60.68081669979081 -1.1812767773530466
-82.85525803021848 -59.962697574694985 -1.1720350873778607
-82.15491979248881 -59.413128595079314 -1.1615580273288209
-81.55505600191528 -58.77691324972122 -1.1524307973320296
-80.95616287453758 -57.990920214693915 -1.143092147374706
-80.11438623360758 -56.821502042429515 -1.1296685974476066
-79.52600548996266 -56.46246967170762 -1.1205174873694803
-78.96774864412731 -55.922960313201315 -1.111617317349016
-78.33702787432617 -55.27370919183346 -1.1012478373312045
-77.89131243484233 -54.61708608102673 -1.0937477273728802
-96.83713491150445 -75.8328578587768 -1.4024444893524481
-95.1338732450578 -73.60215785581235 -1.370058182356018
-94.18971937523544 -72.97870842698492 -1.3603283503434616
-93.76161550801056 -72.42198036004085 -1.3518778623370058
-92.5807295473349 -71.55664425065257 -1.3397089693462727
-91.61785722502565 -70.95146641037971 -1.3325679504801167
-90.72262374117844 -70.30339818038702 -1.3209040483360943
-90.77911046953346 -69.68005339568994 -1.3122105413442156
-90.40107155573088 -68.86930091542328 -1.3021085523788611
-89.51401359802824 -68.2151932446875 -1.2920785923692508
-89.07206711461373 -67.70192997296715 -1.2824471333265173
-86.38382376956784 -65.5054862242507 -1.2512179543432163
-86.17742422855169 -65.10520443164295 -1.2460861063574373
-95.76559028807205 -75.73780112336449 -1.4030435083921473
-91.38896684403497 -71.79900752821607 -1.3371833252251037
-91.1781283347447 -71.42141847402603 -1.3339760015711615
-85.14487467848619 -65.263005515565 -1.2482570333547849
-85.11970635240328 -64.83841142161123 -1.2462719234389774
-111.56474866961342 -86.43071197898774 -1.5802382478136523
-110.75128329880312 -85.83700440690774 -1.5714927378120886
-110.0530854456031 -85.17931855633933 -1.562514397824536
-85.45145070821552 -60.05357525359392 -1.2034323879787423
-77.65622587914902 -52.8219726833277 -1.089500867811676
-77.1767944856267 -52.261045866409496 -1.0816527278184815
-76.6269886548005 -51.576694358808744 -1.0714014678132715
-76.5590143559593 -50.606941625059676 -1.066432737996874
-109.7048620827741 -85.07145606943537 -1.557969947765192
-109.13963317369313 -84.43178624362181 -1.5505656278038364
-108.49963499949828 -83.91800994529909 -1.5420892477843338
-107.66312854082605 -83.1565412681483 -1.5307328177795358
-106.97868565776412 -82.42261183132086 -1.5213255078056527
-106.28461322073173 -81.88279148205814 -1.511811447773012
-105.53170000689603 -81.06818303557081 -1.5011256077971158
-104.8163123606391 -80.49423628221138 -1.4911169177645465
-104.17146994886166 -79.78596330478656 -1.4817745577844768
-103.48572139370842 -79.10366483686411 -1.4718121377844395
-102.76649263100654 -78.49413031888447 -1.4614999777561875
-102.08142845238638 -77.69060710238558 -1.451420137789167
-101.42176244668966 -76.88253908174633 -1.4413979378246238
-100.71140957826972 -76.58163417928492 -1.4314189477129982
-100.04423305697263 -76.17041633486913 -1.4219648996440415
-99.6293187284792 -76.00427629848996 -1.4161325325759624
-98.05313896990471 -74.3671442618673 -1.4020452207720377
-97.33987476483345 -73.64025949343377 -1.3917467527782919
-96.32660644406135 -72.84021367203668 -1.380465355786247
-95.77901069397413 -72.5286486196176 -1.3750285737684949
-88.97533211573729 -65.63278987606739 -1.2765619468125127
-88.86369939910841 -65.27537575786623 -1.2716734418190914
-88.4074357775938 -64.64883067159879 -1.2618244368050564
-87.83489945396825 -64.20526614528862 -1.2529461837570417
-87.30656982395418 -63.74584646909547 -1.246305652758367
-86.84548176739989 -63.06822787921257 -1.2286989096042131
-86.24860361971659 -62.17804253394729 -1.2199689976894477
-85.67305920558394 -61.25570389548276 -1.2111614977825114
-84.9918241566588 -60.50916133404924 -1.201235957801952
-84.3469988057756 -59.79354643921707 -1.191716897820493
-83.68439629617875 -59.24412654048655 -1.182102357788645
-82.94602674966812 -58.60681544111782 -1.171420837761115
-82.27755661091567 -57.82881545257929 -1.1614104777880374
-81.5990122447485 -57.1904697507117 -1.1513676977735727
-80.95924369252123 -56.467293009700946 -1.1416038677894287
-80.22370229070243 -55.51838272966329 -1.13021590783868
-79.64932397275817 -55.11103906899101 -1.121466507782674
-79.03663602024453 -54.49994343931439 -1.1118809077693959
-78.36671366117426 -53.722552922366575 -1.101209807782937
-77.95969475626968 -53.41751702237534 -1.094583207739505
-96.92170599307238 -74.37691926149465 -1.4028633987855352
-95.03776314646038 -72.03757699543166 -1.3699348608099626
-94.18302098173032 -71.54623208122635 -1.3611827867784074
-93.7673509927612 -70.92172608749993 -1.351652780770152
-93.08682318723942 -70.14057005907841 -1.3411179847875154
-91.89351489153862 -69.56503050457191 -1.3326664447865262
-90.9952866407183 -68.8130947272408 -1.3213672592800916
-90.9611413887794 -68.08719916008084 -1.31155936379586
-90.38610834317961 -67.38326745168236 -1.3013443707970864
-89.43306071273442 -66.82221551370472 -1.2918512197710572
-88.96473308132774 -66.02195432756115 -1.2818991508056383
-86.51449935804472 -64.11910092137481 -1.2515451247541807
-86.02695734191958 -63.60979993041432 -1.245753936787029
-95.58758009251731 -74.37307195703707 -1.403610132801579
-84.81467709894417 -63.85798275393121 -1.2486505737725124
-84.73154987963248 -63.33999472699615 -1.2457600238658564
-111.54715584570158 -85.07785302557063 -1.5808710382209437
-110.78853127409059 -84.42094114194829 -1.5718876782330649
-110.01819556100442 -83.8402227355658 -1.5616558381980117
-109.42421359526958 -82.7133112570338 -1.553539148364556
-103.72333780442253 -76.81957057384065 -1.4690776683960987
-103.14197795022436 -76.68959292190206 -1.4612075882767521
-102.75583350347868 -76.59261254656889 -1.4553864981887235
-84.99508738879572 -59.25964929848949 -1.1966761880753363
-84.57970725580982 -58.50064520073792 -1.190220518167748
-84.06553066173352 -57.45944531872185 -1.1813734582946949
-83.59107916818138 -56.67486263669201 -1.174700478390226
-79.09475297229865 -52.171780326944344 -1.1107547784260488
-78.45106569325436 -51.8145335351643 -1.1012025383393862
-77.83688519656391 -51.49544805033523 -1.0918166882449163
-77.1663382485693 -50.81915856353909 -1.0809984782260256
-76.61827261673135 -50.1660907580407 -1.0716341082294119
-76.44101385877251 -49.69172611650309 -1.066048768256182
-109.6432281798274 -84.07960134002593 -1.5569346480338413
-109.22291486720742 -83.27385242322894 -1.5512056281544095
-108.45636379241954 -82.32322798301499 -1.540561878219032
-107.78297096926967 -81.76002045166835 -1.5312977681982085
-107.11930942218913 -80.96201059133821 -1.521793118241073
-106.39910449233618 -80.39738116459222 -1.51172958820469
-105.69751094201328 -79.55184599798837 -1.5014110882451557
-104.98224496755125 -78.8989160025489 -1.491067658228938
-104.35991529501547 -78.20961945214361 -1.4818920982466657
-103.70471688397296 -77.57406414541418 -1.472390138242194
-102.87148918460076 -77.07528790719185 -1.4606851281537998
-102.25912359332455 -76.72785319358682 -1.452168608084971
-101.39339764596112 -75.86989895941069 -1.439559708083292
-98.05451616555676 -72.90386015633206 -1.4024493402069722
-97.36389442795205 -72.02385292810163 -1.3911665392382249
-96.49618519642188 -71.38530912676936 -1.3813826452289912
-95.78814377775306 -71.13340284152362 -1.375617322187271
-93.63838538032581 -68.2600832751825 -1.3450078384138067
-90.92086119532638 -65.61489664668451 -1.30533421339267
-88.8780587496284 -63.78614648981238 -1.271318634246429
-88.45243706765393 -63.21715842234465 -1.261381590213845
-87.78079865470238 -62.60079177994926 -1.2533342252328419
-87.39988527019634 -62.22794802477337 -1.2462415701998772
-85.92280669401057 -60.42813585403309 -1.212833178057328
-84.90574444707684 -59.469287055221855 -1.1980063680407622
-84.48874144493433 -58.86555383643787 -1.1920488980978348
-83.79793788421551 -57.93067048099942 -1.1816308981623764
-83.12429410831315 -56.98730070372244 -1.1712980682310956
-82.47713338002065 -56.34366753448479 -1.161812758229313
-81.7601565765155 -55.745466255410435 -1.1514873281974898
-81.060507055883 -54.87277785826712 -1.140962918241762
-80.42452289467816 -54.23397432414751 -1.1315133982392858
-79.72352210949994 -53.57491982741929 -1.121040528222268
-79.12558374899542 -53.037241217855495 -1.1120596781996575
-78.48059995791232 -52.67958753402817 -1.1023138981092462
-96.87661964787306 -72.89803396863165 -1.4026791762132644
-95.10457674291365 -70.66147750753431 -1.3708592702298608
-94.17860790425361 -70.08581656100507 -1.361775280216269
-93.75118521391492 -69.43267033775 -1.3518911312092918
-93.28241319807142 -68.82539220823057 -1.3416605831820125
-92.10011122380396 -68.05345898558642 -1.3316461263070831
-91.23068049939096 -67.25391375434268 -1.3211643059308695
-91.13491141868793 -66.54907166579054 -1.3111648792366692
-90.30179835891668 -65.87549299824835 -1.3005083712202188
-89.3481190829844 -65.22344042553576 -1.2913514312274539
-88.89280636135162 -64.47985544949564 -1.2811065772396513
-88.86384206784852 -63.87922669532159 -1.2760891593146027
-86.54251595796192 -62.46495728464208 -1.2515280112363742
-85.99814212732952 -62.1369428073573 -1.2455136042118784
-95.38464985165687 -72.87088954847599 -1.4035117562378197
-84.69879264989045 -62.34937306906521 -1.2490386902203492
-84.44247670302931 -62.14464984297623 -1.245378227206925
-94.63606957504602 -72.76797050420039 -1.404721000292006
-83.75941008710798 -61.8036337224742 -1.2473495983457965
-83.68674260450828 -61.77029076917073 -1.245789871324356
-111.6131116349076 -83.63917384522946 -1.581505028653294
-110.8385721824805 -83.04577279991358 -1.5719322186351095
-110.06711323662277 -82.2898786611731 -1.5616172186494957
-109.36280008835453 -81.5634587051015 -1.5518696986666236
-108.63704566891569 -80.77518941001253 -1.5415549186904585
-108.08433436382799 -79.90895785964787 -1.5310779787337958
-107.4257826406098 -79.26869241824372 -1.522557388750308
-106.5692365284598 -78.51697857067434 -1.5112720087440845
-105.88862099815616 -77.75494417320846 -1.5009109887593424
-105.26531013354936 -77.3350227555588 -1.4918472687007247
-104.55065020001747 -77.01682801720906 -1.48110797857895
-104.11737563558835 -76.90166777390785 -1.4740769484720473
-83.15351278494694 -55.98695332519046 -1.1688588384741685
-82.53857018558973 -54.88565698142618 -1.1595956486103307
-82.05882167668554 -54.23694686717481 -1.152431228656406
-81.25237500824109 -53.46859145834145 -1.1413147686584124
-80.58477146032864 -52.776137310486746 -1.1315558186654036
-80.13953580350682 -52.20552342441876 -1.1226162086532248
-79.16470485358438 -51.369780370511194 -1.1107523686599545
-78.57617194901485 -50.81730161092374 -1.1020376486469794
-77.87933538191737 -49.97514306158707 -1.0913221486785272
-77.2667905507522 -49.32223610202419 -1.0816423486755635
-76.67421937656418 -48.615030647354175 -1.0718760386867108
-76.366795524444 -47.93376967148907 -1.0649652987473508
-108.53637656602135 -81.4481807878233 -1.5409520384820912
-107.90092792233251 -80.71596599182891 -1.5317631785120729
-107.20296457439144 -79.97719638167403 -1.5217302185270996
-106.51777836085307 -79.26857289296622 -1.511735788534102
-105.7909372991382 -78.59963483155335 -1.5011988485186871
-105.08853148987183 -77.79920776937766 -1.490792748544244
-104.56541591344994 -77.30018611873557 -1.483229008538674
-104.0154988167969 -76.94703868167892 -1.4754376784860024
-98.00671270105141 -71.28407444563908 -1.4017999116665079
-97.41421609441377 -70.54005935661993 -1.3908692536651266
-96.53449432265252 -69.96394344513868 -1.3815044406460562
-95.79095559948331 -69.34942662726401 -1.3762326737199764
-93.48390294472541 -67.05247726091795 -1.3421478757089322
-91.27238560377268 -64.65440844132269 -1.3096867217598303
-90.99234144405081 -64.83210947199161 -1.3057845696300183
-88.86711024284673 -62.349006494706984 -1.2699680416386736
-88.49606433963893 -61.67913672114858 -1.2607781906504487
-87.87139521593501 -61.09502426877678 -1.253529989676006
-87.45026679018989 -60.64472720368076 -1.2461073856590423
-82.95307553589433 -55.96249376811225 -1.1675344084548385
-82.44992563100297 -55.37746154909051 -1.1599843584746323
-81.97374240124243 -54.91028178476768 -1.1530168884716883
-81.14470736598328 -54.09650525860376 -1.1409118684671908
-80.62482387717216 -53.63041232809327 -1.133376158452575
-79.96252008986914 -52.990991863795976 -1.123631988444391
-96.79940878004467 -71.2840851115923 -1.402188719674274
-95.0973057887161 -69.2307953169816 -1.3712238456544945
-94.15108811825783 -68.61208129743913 -1.3618870686484108
-93.71194262302801 -67.7659173835728 -1.3515694306890773
-93.35324710231865 -67.37257498721803 -1.3414764446021388
-92.34656942432817 -66.48540394623473 -1.3323162431778959
-91.48458104493652 -65.80724068058595 -1.3216015129616194
-91.4008506225544 -65.37729625003352 -1.3143276716416916
-90.30498628635125 -64.32942656409966 -1.300626042673578
-89.37300553183174 -63.8577627067264 -1.2920605926400108
-88.84038712875046 -63.07827478999161 -1.281307970652535
-88.80056187298595 -62.40266102233639 -1.2754528467326212
-86.62166678072573 -61.006946652243364 -1.251527012661675
-86.17083798551819 -60.4546392766989 -1.245447078701299
-95.45860321442905 -71.4549988287133 -1.4034764406501479
-84.87223739323042 -60.80667573499177 -1.2494848456792895
-84.45517755415878 -60.60656715366898 -1.2448869216457863
-94.28780111349042 -71.33022747064783 -1.404491425706827
-83.61635741861686 -60.567523257850425 -1.2476976087133402
-83.21948072535884 -60.31353531318007 -1.2451289837361046
-112.15540482199302 -82.52318440295304 -1.5868086490848214
-111.7896570544758 -82.18306184905421 -1.5831036191100045
-110.90090590564402 -81.55941988285579 -1.5719348390687504
-110.14172128163477 -80.77149261650325 -1.5614568990892252
-109.48357542153879 -80.09218905827734 -1.5519836190980887
-108.78437663362553 -79.34671710527034 -1.5416434491089317
-108.27401350852145 -78.56337799415712 -1.5305602491159735
-107.56057789881021 -78.11845798304387 -1.5220609890759274
-106.73317383338885 -77.69602381035058 -1.5118275489946689
-106.2046358886771 -77.43066656883474 -1.5039312589142906
-105.46842050503719 -76.29824613099615 -1.4935801590377933
-82.46284226922138 -53.395016460481244 -1.1574212390017204
-82.46856748566903 -53.65028439025538 -1.1563159189051684
-81.25728804361268 -52.46915564692891 -1.139088608905477
-80.70409845814177 -51.73301893302037 -1.1308427289554457
-80.38196737447473 -50.80876751055452 -1.1223937490562315
-79.45821344412433 -49.860267738271375 -1.1122232191296904
-78.62177236499515 -49.29532337246265 -1.1007485290652006
-77.98451746269347 -48.5809213567246 -1.0913508190858128
-77.34654099770329 -47.81025549364079 -1.0816322391164261
-76.70934288859272 -47.15747731186959 -1.0716515691074129
-76.38500857489218 -46.67857731898923 -1.0646298791068043
-97.95688246901983 -69.73948603761755 -1.4010724071025473
-97.48594541915604 -69.05694930466842 -1.3907361870951103
-96.51956571321173 -68.41757581304608 -1.381233415091736
-93.76409121435337 -65.42645295578929 -1.3467469722751657
-93.55939227145561 -65.67720208031983 -1.3419046221052573
-93.04668909100735 -64.80902410305362 -1.335562319731782
-91.40906478744762 -63.59498106976087 -1.3105508630861467
-90.95447027204256 -63.1110306353234 -1.3048886281141767
-88.87369132175361 -60.83241439215338 -1.270706067095831
-88.62588542869857 -60.118259012502484 -1.261467839119558
-87.93341987915825 -59.56366494985053 -1.253357926119285
-87.4110496640033 -59.073657489947436 -1.2459730301146592
-96.76418537434402 -69.88388887050357 -1.4023850360866525
-95.76646380344374 -67.39536013740948 -1.3766361492980657
-95.07624030141969 -67.83436841549127 -1.3713610670645926
-94.11347599825102 -67.01466287646281 -1.361488176106428
-93.72716215077833 -66.34792579607972 -1.3514399861001374
-92.45469337032814 -64.98902351273662 -1.3313771672956447
-91.74503928396727 -64.25459481740921 -1.3217408220173303
-91.57528416055472 -64.12179058757161 -1.315445603030278
-90.32806626722542 -62.86839370463716 -1.3005322520979063
-89.2826946003884 -62.21843309465187 -1.2908666110943663
-88.79924266255598 -61.49166145114708 -1.2812303321138194
-88.7443629581887 -61.13427797707347 -1.2749028340916346
-86.49395292684717 -59.421743575503854 -1.251217918117923
-86.06869961195954 -59.116735931440346 -1.245273421088113
-95.37802853065801 -69.92167936745174 -1.403724046102385
-84.89236844747651 -59.283323941155736 -1.2494829021236322
-84.37223345591441 -58.96513427528353 -1.2445491791178651
-93.76692004891048 -69.64503691546537 -1.4065474812395042
-93.97961414281761 -69.9031521969739 -1.404258991118479
-83.29779788775346 -59.19538991801139 -1.2476923711135048
-83.04857389589867 -59.112450505554506 -1.2443927770717658
-93.30916046429077 -69.51584454399082 -1.4066961202801616
-92.96633932504938 -69.68515037606399 -1.4055480382078314
-82.26938403386364 -58.77307385358961 -1.2465926132147243
-82.01705636527241 -58.90394863249153 -1.244810322140932
-112.21404927336022 -81.43754829913249 -1.5866528093984016
-111.75916676885862 -80.56592230455459 -1.5819848395593894
-110.95172513676783 -79.76774199930554 -1.5711382295754883
-110.30247612516516 -79.27785879119655 -1.5618004195318023
-109.6626438071794 -78.70674459876874 -1.552127649505119
-109.01531699203998 -78.22712838044092 -1.542424019451128
-108.3268864547715 -77.83523420083027 -1.5324270093656849
-107.84258408575924 -77.16605667940556 -1.5258954294303766
-93.87190438009007 -61.43671148637348 -1.3115429887355672
-80.41023967796988 -50.010410196368845 -1.1246419693340475
-79.3634611644762 -48.84570754687502 -1.1088271093577886
-78.83401020932912 -48.040194163212576 -1.1007150094306686
-78.13846100842905 -47.01261049297759 -1.0907855295320137
-77.49765540906594 -46.3554961455573 -1.0819543295472345
-76.77256043574883 -45.775295508998944 -1.0714876295073374
-76.46113985061608 -45.42118843731323 -1.06534244948784
-98.0511420340114 -68.23983836509558 -1.4010443935394543
-97.6015516042351 -67.54433493491729 -1.390926475540162
-96.55000857251564 -66.96026674447326 -1.3814006395201939
-93.82827717971968 -64.41344251595017 -1.3470366955764634
-93.7182888309934 -64.23151743217237 -1.3422514555339131
-92.92589658697561 -63.446575077040606 -1.3333488437849959
-91.8522493967507 -62.1850478581666 -1.3179507457453097
-91.5939328296499 -62.11712523643547 -1.311172778529684
-91.13319618595109 -61.653882868945985 -1.3050322855421164
-88.80182376907723 -59.22792210353715 -1.2700582845509383
-88.71643548409692 -58.64272526418698 -1.261253225545702
-87.90795452444104 -58.08445485258423 -1.252968477543008
-87.46808833410607 -57.63645059889933 -1.2459422295332958
-96.74321424409294 -68.302816263224 -1.4021923935440226
-95.79330955611366 -66.65858614267744 -1.3770227495207175
-95.04349886654433 -66.21827203455531 -1.3712719035342475
-94.07549942053414 -65.4279180529761 -1.3607398775543496
-93.7854114564922 -64.85321981718292 -1.3513569765345042
-92.43712015914306 -63.28815138966031 -1.328839402041101
-91.94683636658216 -62.96883061899892 -1.3219600980967863
-90.3175645312791 -61.25503934660577 -1.2999500025569084
-89.28319062790197 -60.657211982367244 -1.290618299544833
-88.7842812950468 -60.057183912838056 -1.281327488534217
-88.67642572994683 -59.565538395331565 -1.274817282547547
-86.4788687523372 -57.992257602807385 -1.2509846785302623
-86.0280837923876 -57.436736072906974 -1.2451413225755512
-95.43888920054891 -68.38207853429981 -1.4038379965537837
-84.86708117853948 -57.94340302815898 -1.2493395535116403
-84.39020166012538 -57.56201751271031 -1.2443246415226858
-93.95235285442394 -68.59051153109837 -1.406717384550518
-93.87650839841079 -68.46611736575174 -1.4032561055176411
-83.21931474135673 -57.7921721085706 -1.247792164524836
-82.81675685892257 -57.41455420219944 -1.243661666552455
-92.8461232518873 -68.57201424543399 -1.4070082035617253
-92.49932866039978 -68.53034631713805 -1.4044504565227707
-82.09563340183995 -57.65893941770134 -1.2467418705427145
-81.42277226525295 -57.497324935496174 -1.2444937255449362
-91.58515447977173 -68.0509858261432 -1.4069902547133575
-91.57590157951088 -68.08357168267976 -1.405819232680452
-80.54053596347498 -57.08922143202082 -1.244109409656306
-111.83880521992796 -79.12169812725197 -1.5819682999803582
-111.07000356169962 -78.38662802484812 -1.5711086599777864
-110.46800302185386 -77.78964643732922 -1.561818069966286
-110.20040704304718 -77.37250216164284 -1.5563400199785082
-93.87712855419345 -60.54346837877115 -1.3115511839963017
-78.21782286982088 -45.53644578552268 -1.090008179947097
-77.59619512784637 -44.81669581249838 -1.0814846599867378
-76.8458964763987 -44.15583463240202 -1.071189639973801
-76.5572225802238 -43.856843945135665 -1.0652405599421437
-98.0923539573718 -66.77382916629048 -1.401549714977206
-97.73506927537588 -66.2078694469417 -1.3916508429445011
-96.5379574633139 -65.41113305209883 -1.3814996959740757
-93.9220035547293 -63.01981659871459 -1.3478340009989345
-93.82813513573005 -62.76338877861764 -1.3418022299532089
-92.962023706635 -62.08029390430415 -1.332084624058296
-92.13690869052515 -61.3488732723201 -1.3214168390584935
-91.74970518472138 -60.83569364694243 -1.3117819199156664
-91.11648440881179 -60.00165359329969 -1.3040685440048356
-88.79231850402994 -57.72517237523322 -1.2689130449664254
-88.80108378227516 -57.27083618146404 -1.2615912289526543
-87.86481723725504 -56.48811104281829 -1.252580154000923
-87.5139873993518 -56.10844731966863 -1.2459014529782197
-96.81798430564537 -66.86157964776194 -1.4024221179690408
-95.78833917511533 -65.05138114685333 -1.3770140809893872
-95.04283460200271 -64.73926760267254 -1.3712292229648395
-94.12581635385392 -64.06109647202311 -1.3609686559576408
-93.86143764354665 -63.4730358451434 -1.3522748709554635
-90.21542751990222 -59.777277828735706 -1.2985936949608885
-89.38671843526149 -59.1840335113764 -1.2911540819852847
-88.77309713310126 -58.575559924371944 -1.280754881954984
-88.67927492581984 -57.954013788273514 -1.2747189540156851
-86.48373569912393 -56.45995153030134 -1.2507693499729533
-85.93693259587145 -55.99816768993414 -1.2450196179927686
-94.87003135047722 -66.65587060843438 -1.4065206301109467
-95.35012674527334 -66.95411841777323 -1.4034540009626655
-84.77026169847194 -56.291092394475925 -1.2490994959888442
-84.5152880678508 -56.04289462912642 -1.2442241339638256
-94.19196963240742 -67.2371727184897 -1.4068500199479552
-93.86580531738637 -66.83190871090812 -1.4023886199770268
-83.17842042241084 -56.220816802776966 -1.2477939459832565
-82.88320536249412 -56.0114218696133 -1.2433208329549565
-92.62287851215449 -67.20977532033643 -1.4074708099683522
-92.4167033035923 -66.78882305284512 -1.4038246530182907
-82.12936251527388 -56.05715343968983 -1.2468924180129846
-81.33703989031972 -55.98548590386632 -1.2442222639805351
-91.34649301671327 -67.16456787161346 -1.4077359619868381
-91.14513719167303 -66.91264531629369 -1.4054480450146094
-80.13135958155723 -55.91039112438502 -1.2437873359937504
-90.38086868062945 -66.57201992379659 -1.4074618701542152
-78.98980171501275 -55.26608502291158 -1.2435985911779313
-111.85190859560201 -77.70976681260129 -1.581128320375452
-111.22610958965456 -76.94941824930541 -1.5715725204063085
-110.6297200559568 -76.34099185188126 -1.5621775903960615
-110.27232413441227 -76.05352466563495 -1.5562396303612651
-93.76381362455933 -59.14437201877566 -1.3116457164063255
-78.32973324105456 -44.42064245466027 -1.0901669802757648
-77.64624770591983 -43.51343550472883 -1.0805626903484926
-76.98538534592345 -42.689840384998774 -1.0714210204060741
-76.63492832707517 -42.51646341510494 -1.0655859703400525
-98.09791890225745 -65.17397183933545 -1.4015274304434602
-97.80282037458255 -64.63881604562383 -1.3917461664041193
-96.54379991150795 -64.03884985329383 -1.3813992583723818
-94.03784309752841 -61.666322099326365 -1.3479432103959488
-93.88108720269743 -61.14168191977918 -1.3418144304265258
-93.12475236135444 -60.63947092410522 -1.3321715057803392
-92.31602297592735 -59.72336539634006 -1.3214482534333032
-91.79124692909332 -59.02757005620589 -1.311284686433184
-90.96379071985125 -58.41039297906703 -1.302366043435007
-88.78972564473776 -56.264459198087295 -1.2696280024068212
-88.85222432654619 -55.784253708342135 -1.2619665293938092
-87.95247240080009 -55.19684773216855 -1.2527351853806992
-87.45770960323647 -54.72214432330986 -1.2458251373810976
-96.81285692212698 -65.32466673073311 -1.4024425924177875
-95.78898553097139 -63.42979882832725 -1.3767024464561968
-95.07672270561466 -63.19540357745871 -1.3711930214144816
-94.22848084292752 -62.599143208558104 -1.3616327193973812
-93.96541635679031 -62.0457594593466 -1.353263647391577
-90.25722092204768 -58.11091738001022 -1.2978540714322084
-89.4810878125089 -57.80551236836228 -1.2913719263917705
-88.82437337516218 -57.08007721552176 -1.2814371394048691
-88.71530632932348 -56.75400869661113 -1.2749820533709997
-86.39640397826244 -54.8824713300842 -1.250466379427071
-86.00609057896582 -54.54957461729717 -1.244991186414774
-94.85726072387317 -65.9187733682063 -1.4065135083258253
-95.37504484981216 -65.37819257723353 -1.403648387426268
-84.85544793433581 -54.925840889026595 -1.249064523386407
-84.52343134332622 -54.49128073697511 -1.2441107144141852
-94.20786397868085 -65.80668055156113 -1.4069468413671833
-93.8328061785057 -65.37089120638922 -1.4022884254012227
-83.17523741096056 -54.75127355651511 -1.247746672410997
-82.90564857680617 -54.487340239888624 -1.243085022394839
-92.68323405826186 -65.75055467359397 -1.40775025939961
-92.41854634797008 -65.34819050236379 -1.4035554334331626
-81.99416335999557 -54.656520735199834 -1.246822531420171
-81.3747805295974 -54.45200099856793 -1.243428129412004
-91.1843256872216 -65.70367756759241 -1.408321130424692
-90.93844350861036 -65.53868491869758 -1.4050965414083878
-79.87251774120247 -54.43944677691308 -1.2432955614130172
-89.85955679989935 -65.58219091419102 -1.4080531924547774
-89.9981619845891 -65.38966057005021 -1.40616397147319
-78.61590124074748 -54.22680582238351 -1.242509144459333
-77.54156226792645 -53.64394167773422 -1.2419071376173325
-111.98923633981795 -76.5538180757467 -1.5816540407231627
-111.44675740176139 -76.20322928180599 -1.5736100006646951
-99.84297581687662 -63.56125515092686 -1.4074797370328518
-99.64244667205595 -63.67803300343176 -1.4048061109453607
-98.49496989079991 -62.57075049612967 -1.3879145419308363
-94.96280597394016 -59.162532392692555 -1.3404764499771338
-93.41436317048519 -57.513174236635464 -1.3108143318655543
-89.82308043930809 -53.99789660171957 -1.2622008209195947
-88.64721295671416 -52.66727696699567 -1.2438716779414944
-98.1057077179791 -63.811998688428545 -1.4015989638421948
-97.87306773369161 -63.06419850811278 -1.3917434178634012
-96.70663084301108 -62.49281252861655 -1.3818789048329656
-95.7867817470175 -61.874464638285076 -1.3762701379012696
-94.17918181435111 -60.10750073993337 -1.349135487874502
-93.89101112276401 -59.63115694802768 -1.34102393985137
-93.20568803285323 -58.919777467741135 -1.3313145138648714
-92.49649672933157 -58.12385114892441 -1.321408030599099
-91.8854063339125 -57.48351207439461 -1.3108105378741313
-91.11500541822524 -56.86372940295027 -1.3021277538814275
-88.84938518010412 -54.82738741726713 -1.269840739830285
-89.01477524699007 -54.27420456030336 -1.263084906856658
-88.02784770909486 -53.65671208446884 -1.2528331908319355
-87.62041245553475 -53.27465926117931 -1.2459277468053982
-96.8180917702363 -63.823887337880016 -1.402277569852287
-95.20663555169499 -61.870375268894875 -1.3719100768153383
-94.31242996717538 -61.05632453945636 -1.3613166848411267
-94.08257420382813 -60.7486776096537 -1.3539918677845042
-90.3199210936844 -56.83048944527254 -1.2974283897972199
-89.6469448043951 -56.35037122747447 -1.2917989338247868
-88.85032791016178 -55.5293749579141 -1.2808222878449431
-88.75880168792642 -55.19866455281955 -1.2751394588278593
-86.37079336448075 -53.485825662098655 -1.2502933478310332
-86.0376278011494 -53.00618591348113 -1.2449370738639194
-95.37078486929498 -63.848269767012425 -1.4035586978707744
-84.8377126810089 -53.400909580254336 -1.2489883118297267
-84.53988606614028 -52.84548494666833 -1.2440386078928447
-94.12470533739692 -64.14743380743225 -1.4069885798520414
-93.83159624887595 -63.871283550583854 -1.4022587428380848
-83.3166405163436 -53.237200725463865 -1.2478440288546173
-82.95375514685891 -52.875530559447306 -1.2429776978628804
-92.63615398788174 -64.1833847543505 -1.4079457038606795
-92.35604154752923 -63.821271342217486 -1.4034337958761542
-82.02016499426644 -53.29020577020882 -1.2468196338186852
-81.2899629485461 -52.842535468457825 -1.2430921978747935
-91.15390682735296 -64.25689024902758 -1.4086712038537343
-91.03706438399657 -64.05386903245599 -1.4046577628327603
-79.99923506901663 -52.9951126820184 -1.2433959578363547
-89.58114802206835 -64.26559158976889 -1.408646482850702
-89.72882327577983 -64.06823689317301 -1.4059813428550172
-78.32876826195356 -52.929542925494175 -1.2422468248325198
-88.5383266251419 -63.982730845805904 -1.4083362189270163
-77.0062696381991 -52.495509916122295 -1.2412580289393744
-99.97616796500016 -62.821779240956765 -1.4105277773094735
-99.54207554396281 -62.566450819167166 -1.404612396265753
-98.41877223892091 -61.67295345219581 -1.38713407517714
-98.04771729874258 -60.86301414707235 -1.3859746873902425
-95.14924727671719 -58.078480361718114 -1.3417834603194831
-93.36602587706216 -56.00989118898232 -1.309142672270678
-92.56306861141213 -55.08738442426119 -1.3063417794838168
-89.7497400586601 -52.84427380772892 -1.263426568280615
-88.3204084514449 -51.39200036986084 -1.2411658952594415
-88.07286978930684 -50.31001420754428 -1.2347221494463099
-98.14940037233453 -62.23670190806652 -1.400992546289612
-97.94350900151166 -61.60220324197651 -1.3919476462939653
-96.81084675046644 -60.93879012054552 -1.3809448152676291
-95.71494233161249 -60.20721474128046 -1.3741547173453572
-94.50192888188471 -58.56093189703063 -1.3572211864872277
-94.40662215885648 -58.78636923239292 -1.3509168182954885
-94.14785754029359 -58.14525257645612 -1.3409232522828158
-93.33356040190007 -57.526551680496716 -1.3320217168854254
-92.53912588867689 -56.819413666610174 -1.3210514289724946
-91.99960498211667 -56.25225835798467 -1.31178218725272
-91.43474917202764 -55.508321673284506 -1.3023031392803224
-90.2968340899533 -54.78608587699477 -1.2947468013400147
-89.01810041626283 -53.4333797866898 -1.2774811843896092
-89.06227604004053 -53.34273581742045 -1.2712191312909207
-89.09404714801497 -52.84121262428301 -1.261990804252818
-88.12847944060643 -52.18738145522752 -1.252562571255151
-87.58291926570351 -51.57778417201728 -1.245891463299674
-96.75018799621422 -62.36164835065489 -1.4021023402753399
-95.19245253535382 -60.144604632454175 -1.3699872982803465
-94.59218093571907 -59.5560154477966 -1.3620063592925677
-94.31108909835083 -59.47297881938986 -1.3556855901904867
-89.69407214031921 -54.655597906588696 -1.2897425302780827
-89.12677929826496 -54.060436685044294 -1.2817603022921953
-88.86908273584329 -54.25174292556436 -1.2761033291233492
-86.41319117807997 -51.937739467574666 -1.2502321712814077
-86.05150180769914 -51.536146718051945 -1.2449017882920441
-95.40161845386027 -62.399197713351334 -1.403070133283725
-84.85178992213282 -51.71993737093549 -1.248904165318407
-84.43005562805621 -51.4930213454704 -1.2439275792851574
-93.956916848693 -62.73821179621049 -1.4069974612633074
-93.85378010076184 -62.41316496419482 -1.4029981462782122
