# .PCD v0.7 - Point Cloud Data file format
VERSION 0.7
FIELDS x y z
SIZE 4 4 4
TYPE F F F
COUNT 1 1 1
WIDTH 873
HEIGHT 1
VIEWPOINT 0 0 0 1 0 0 0
POINTS 873
DATA ascii
101.61333238730116 85.68095069378147 1.258350461686957
100.40224412144721 85.58853072789965 1.256537830550119
69.94199064153901 85.86566015831434 1.2382558543003592
68.96661837945284 85.9872923658627 1.2374100847505833
67.3643054961334 86.17896040750082 1.2372489104101287
65.98978424740527 86.52376217076502 1.2371551934658473
65.05350113437623 86.75990556944016 1.2411322105863252
99.61543402038869 85.50050946371387 1.2565499147282009
98.36697405526982 85.41698612440943 1.25568357381026
96.93395907496453 85.246423464364 1.254562238202099
95.28140155488222 85.01195944002134 1.2523838515550278
93.53154554978123 84.71072833398895 1.2500338862815235
92.00890756852134 84.44288163957582 1.248928562197188
90.30727350442395 84.16996584271648 1.2465948980292625
89.45262411623887 83.99316291207934 1.2472761878846408
80.44814952812766 84.0956621806229 1.2413887679870692
79.50588476831669 84.28679485543118 1.240010107747863
78.03857614693344 84.57852088240611 1.2406051422916438
76.54669581524043 84.87903547021382 1.2397307785765064
75.06484131555587 85.1909875233032 1.2394858280900642
73.45300232422204 85.45857792183176 1.2401109330801332
71.89326444451913 85.68777290628566 1.238982762681784
70.79747871916328 85.7801464382126 1.2383281355972056
88.633914052608 83.81517269073869 1.244334878947096
87.55078839187985 82.79907252884878 1.2409653235732405
81.7633881004208 82.97410388598381 1.2382742224501815
81.12832485793616 83.87346395486236 1.2397617274722432
86.51437343880619 81.38379556464383 1.2357904225569651
82.1551184000637 81.56079293356208 1.2340363835135797
85.76293487085447 80.672072400691 1.2328335244605122
84.91993870993836 80.31946853229253 1.2325770985313
83.35666595782023 80.36801824083429 1.2311091706558455
82.48516295648089 80.68666064144661 1.2290775645512617
107.96378877639233 86.27241568283917 1.277117736732461
106.72303782435131 86.1016308659673 1.2727657712065588
105.33557282304076 85.78925053943505 1.2703747117752113
103.72271440694487 85.63224977543253 1.269250132944713
102.04947485045292 85.5127408021211 1.2666956085623668
100.79294457019462 85.39739608391697 1.267172643023439
70.4329399673131 85.72255860906648 1.246528109771913
69.28282700303039 85.81927104979745 1.2462160669235898
67.71867163284472 85.99055346875822 1.2455570957221247
66.3418942604848 86.1347807270068 1.245607218788212
64.79407252541547 86.47201640614718 1.2452369450484264
63.91945596966087 86.68694184485746 1.247735365062495
100.11385303519742 85.38638574867161 1.2649699798870118
98.81458836301785 85.30710485636338 1.2644548881677289
97.33391268602185 84.71441726450978 1.2615841120267408
95.63224170974084 84.91259696145147 1.2613928532150842
94.14214863397378 84.67345501248235 1.258746812888874
92.44746122346022 84.37980962525603 1.257481945470433
90.7627120012978 84.11303284787267 1.2555251335455975
89.56696602000561 83.89852303107398 1.2556824853129371
81.09871432216677 84.0018130422284 1.2494693877379464
79.98545959319735 84.21581986815796 1.2493116325695508
78.34036986295985 84.53158459632057 1.2491923295211278
76.9019444221746 84.81983921368482 1.248888639054609
75.39764065081988 85.12799602638756 1.2483217986202582
73.59264872380247 84.97131383781122 1.2465205674009583
72.4762044082686 85.56042942971683 1.2482145108301543
71.25826960061629 85.65834785437974 1.247053708514469
97.56091449819674 83.6738525788909 1.2623389425037097
88.70288832546652 83.7371958271185 1.2516411476205709
87.98157220281593 82.9396277030959 1.2497524023349704
82.26619180598293 82.90779936697513 1.2470382837112342
81.72175393594719 83.81846084754645 1.2483879160716216
73.38023526088081 83.9283605242505 1.2462785329103796
86.9799443015763 81.49341923067215 1.2457312504159144
86.17888663914893 80.69478189816661 1.2455391174574193
83.23102178630322 80.71341941213691 1.240795186718467
82.68109514156482 81.4761445706411 1.2426747383940029
85.26410646004453 80.43371217489403 1.2409780169902866
84.01989555270885 80.44245464776347 1.2405293884050674
110.00646783550303 86.22918855412168 1.2868253202787914
108.78716613548595 86.06995696053366 1.2819277240459166
107.23362007120923 85.74672831439597 1.2798593399675307
105.58705030374043 85.60629318573922 1.2782478649988733
104.02568485597254 85.47907127329667 1.2767528813307418
102.4430034817181 85.37136606536285 1.2757870529575677
101.08784725328574 85.29370692846528 1.274913529633028
71.10056759960888 85.59061784846827 1.2556132189385991
69.6869682135645 85.69711793485686 1.2550452404048578
68.2257674758142 85.81220468480402 1.254587242295041
66.77836141177762 85.95621388015392 1.2540684469635868
65.07278252705365 86.14073820436488 1.2534975022003598
63.675475592979566 86.4564540281591 1.2528611160254537
62.684489477981906 86.65044046842895 1.2558921178959244
100.3479967742814 85.25721173488421 1.2740802106340237
99.10517314709904 85.20452747553502 1.2726048260763654
97.74577346986499 84.53882907142786 1.2701696862690386
96.08022996450072 84.85128682734953 1.269844717516689
94.43171043129014 84.56409965406411 1.268648928071292
92.75589355429672 84.29972786362518 1.2664311311322953
91.20575349114611 84.0596605401573 1.264348825016756
89.73234976071285 83.82887522701058 1.2632304590146874
81.73020123077913 83.91867816862563 1.2579655864002832
80.34003056907915 84.175043765552 1.2578906815392699
78.86137235440168 84.45704061987045 1.2576956138284374
77.29573335366986 84.75818299544757 1.2566528188946453
75.81339118133322 85.0586534832802 1.2571222243228417
74.0548549431481 84.69187727030092 1.2552013481300355
72.91048054158131 85.46386799054103 1.2568252681456666
71.77396242992425 85.54237699898252 1.2556763019121144
97.58457564046435 83.58068268319386 1.267086300016823
88.9008151580559 83.67204707607165 1.2597290882509509
88.31617317914768 82.79050260350864 1.2598448655770298
82.79512217468488 82.8499392060523 1.2558692994273153
82.418952260619 83.72084404477775 1.257323701527563
73.70905608265824 83.82783454329048 1.2514221761137014
87.42038099498316 81.6084201176561 1.2546635304095606
86.03010292544437 80.7002231613751 1.2516815939029824
84.19528946051202 80.71398455252991 1.2502432173089617
83.22355516608602 81.52430184283438 1.2523849360192896
85.15018329832364 80.48336413796224 1.2463790969952868
84.74090472023084 80.49763396311812 1.247070940480174
112.04534773993707 86.2089742994071 1.2966400560233677
110.81602068963262 86.0484992678297 1.2921359270717443
109.18573198881722 85.6941255003191 1.2900185601905596
107.66654065058275 85.56517402944455 1.288745321728108
106.06024770936983 85.45224962647123 1.2868130231895423
104.39275291977113 85.35847191561156 1.2849083332196287
102.81795999538585 85.2632998298741 1.2841992640683357
101.28844754391073 85.18266881700369 1.2838306265936745
100.06978829866024 85.133166688842 1.2844549717638964
74.25638698186131 85.34214210034179 1.2698201029538452
73.34598354905005 85.39484945818747 1.2674263940383326
71.71263087017472 85.48299070412459 1.2649842321189158
70.12969447992863 85.5931745597686 1.2630239742383684
68.61681962617365 85.69817994869362 1.263184381986933
67.07881684929079 85.82101900984134 1.2625195112988217
65.49323031533386 85.97241767156116 1.2618081008530175
64.04557988888969 86.12234996195797 1.2611695452194955
62.515875919862694 86.42174087298386 1.260694337415562
61.53713127393302 86.64384043465651 1.2632167683444522
99.5793020699924 85.1482536083576 1.2805528578568188
98.14154656419589 84.36103704227857 1.2787491236010247
96.57529799832238 84.79899693469916 1.2789702002022658
94.87889661443636 84.52780787500264 1.2764584800838512
93.18571110158986 84.26295152298478 1.2748387486470567
91.70756713557279 84.03975754660385 1.273195618965577
90.08907308797134 83.80636686594542 1.271816231705655
83.25799108515936 83.66414104063202 1.2710473225218775
82.31442470442228 83.87849287506758 1.2672370720277175
80.84956714906757 84.13037120964877 1.2665249026461132
79.16675226057986 84.4371473835992 1.266637516548965
77.74992922016358 84.69994822215097 1.266336883719162
76.24313296120705 84.99993505693845 1.2667574401774568
74.38598748681538 84.60592475594422 1.2637664782803133
73.37988464318613 85.40770797805747 1.2640410751464741
97.73600072952614 83.5117609255115 1.2728335600568386
88.6094180878695 82.7343414954922 1.2682621129499387
83.31887683955485 82.74530887355479 1.264006416276563
74.33555731550817 83.72394672093576 1.2608519282190733
87.70844650716388 81.54574062288748 1.2644064804677888
86.33350813051592 80.87991553191944 1.2610843493067805
84.83406691315906 80.86712344380325 1.2594774977488774
83.76153127541392 81.54912477776203 1.2613656824301658
113.91555636162676 86.09798789356756 1.305624943304127
112.87243360455824 85.96211348237894 1.3020366512985304
111.0564167893002 85.6420998990903 1.2998347220862876
109.63022793750824 85.53974412235146 1.2982480426430343
108.03348798003248 85.42029514910527 1.2969349315569974
106.4920603891517 85.33804919373664 1.2950672959121514
104.81710403649018 85.2355072050637 1.2944791312101984
103.27591690588991 85.16995084470568 1.2935379935885296
101.74581021319753 85.12804962683627 1.2920791924882942
100.09226232892831 85.08811275174347 1.2901481914286987
99.33171001791243 85.05808526041264 1.2913090288728366
74.53915367564525 85.30992464142726 1.2743327823408324
73.72359986603216 85.34924384741544 1.2742724341210179
72.0907019175279 85.42841940542053 1.273293071215876
70.55312539045728 85.50706810716143 1.2719843405294189
68.99380858960913 85.59446437132057 1.2719325759496234
67.57619674654039 85.69056517432081 1.2720428431942388
66.03048123925456 85.82241557306341 1.2703583517049524
64.36733170266857 85.97195158112565 1.2696599641208897
62.831541406362206 86.11960868596849 1.269392708762508
61.33352497663687 86.37298078619405 1.2685215513215005
60.36903286351976 86.56515751098969 1.2710737092855773
98.5342683764108 84.28068406836056 1.2876696357006339
97.00857972279569 84.74345266666953 1.2884045722721917
95.40819258374256 84.49083996649519 1.2861279757786532
93.8198757355668 84.2514643256761 1.2847973519246203
92.21245636995225 84.03401288239128 1.2826425343907708
90.60202078638291 83.80561326075203 1.281294618318107
89.53815750681622 83.54159315865043 1.2797833835770804
83.65579616300786 83.62412697651624 1.2774229527957492
82.7959442714415 83.86397432119506 1.2763278250078889
81.21059433498226 84.13595097555226 1.2761642044767212
79.74735979344018 84.38067860852148 1.2758879606895457
78.28098774667664 84.63938069803012 1.2752311589327638
76.78060901893312 84.92933821148542 1.2752533345587234
74.93281426775506 84.62612925269757 1.273034574576408
88.92062965860771 82.73621120911379 1.2766634328684252
83.89207020989785 82.57368208991068 1.2724482851200378
87.98190215070046 81.57387747614955 1.2725000188326232
86.95107935669297 81.11193309227795 1.270388877147507
85.31940097496955 81.09422318137037 1.2697211583614065
84.34961324147366 81.61780085903582 1.271031948267455
115.98070719703122 85.97694481427176 1.3157430823780008
114.85208914440767 85.87762502666136 1.3119650361754038
113.22681987999376 85.62447146879191 1.3096712652432636
111.57282115236212 85.49135593218713 1.3086852382892908
109.976616687118 85.39078443333979 1.3069758324664462
108.41995491819162 85.29705906397321 1.3057867939344605
106.81163266392676 85.21822541895307 1.3042584067912752
105.36198940600588 85.16212360815327 1.3032224007914364
103.8041448677981 85.11451611174165 1.30233087858688
102.16858897728463 85.07290405368019 1.3006943523432477
100.53846899339668 85.03343314092395 1.3000027142654802
99.30800904655817 84.95482925778087 1.3002405565134116
75.37533098958646 85.18940691713203 1.2850245372687392
74.07900784830973 85.30652893030368 1.2829799223888358
72.67313983785209 85.36270277389771 1.2829653369901908
71.02770410979535 85.44130935621435 1.281877862484151
69.40757621953539 85.5235454145407 1.2805816197190873
67.81492325130975 85.60860301448699 1.2803228149260526
66.32730663783778 85.71576444168932 1.2791403215865154
64.90507963629456 85.82666388076369 1.2786195696266374
63.36321258156836 85.96246465754787 1.2776736633971768
61.81609275954611 86.10729653095026 1.2770227802208705
60.186612413611684 86.40781334444786 1.2760065065355868
59.11003117155569 86.51560292094722 1.2785837797523834
98.954663163053 84.18635263665105 1.2961309321506576
97.38257802802988 84.69861063499178 1.2971845075780233
95.74435791341409 84.44146447581093 1.295175445265819
94.2717369270952 84.22877942566132 1.293453351666487
92.5144155711678 83.99656450374839 1.2915947456364407
90.9470897427284 83.78199473212855 1.2902102381097085
89.9175341146257 83.53507672352615 1.2888285342121355
84.08441641519228 83.5859069208451 1.2843898711420096
83.21525400197075 83.85398217511671 1.2849323827292594
81.59190378257593 84.12155985442088 1.2845520303763138
80.1707597977727 84.3478225798696 1.2836095920202943
78.5519775886672 84.63379741023618 1.2836710472027957
77.15549251082315 84.90083749707135 1.2834337210803186
75.28143426866369 84.45317639641819 1.2811410851487781
89.13287981941983 82.5544445628437 1.2853555254132962
84.56180845359093 82.43590927820665 1.282271574970458
88.27833025924912 81.64446329362248 1.280819516150955
87.44984872756592 81.33593706266325 1.280548489387302
85.82136585671257 81.31931104260285 1.2798232590448475
84.83013885172905 81.623199938042 1.278099774266111
57.95505868790439 86.79131154514253 1.2879982925763651
118.04634275754599 85.94175528465732 1.3255815528572632
116.71884179570955 85.81334482278915 1.321481216113645
115.13830226107352 85.58121881148804 1.31953643685419
113.66279867774821 85.47522899646935 1.3183954722826159
112.03751040834081 85.37716829081555 1.3166480463158121
110.45958419293852 85.27071101793054 1.3160891860450734
108.87543362807774 85.2028587721403 1.3143610316480128
107.26190087003859 85.14108260675306 1.313629788999434
105.69850543588137 85.10677783545756 1.3111563372734643
104.15168251448878 85.0583062143438 1.3107373660946742
102.57019166940536 85.02761351479916 1.3089877485542645
101.00318412262901 84.9914411818473 1.3088249299752133
99.1010144282076 84.85337632881944 1.3066401579387763
98.49033902803156 84.77556576322726 1.307053115896599
77.10371668270068 84.97771137491421 1.2947049860734912
76.02600877074173 85.09069391150823 1.2923605711704844
74.55522264697392 85.2616994071352 1.2920691243065117
73.0625351887999 85.32016374186472 1.2914488606783743
71.44700947303026 85.38719847446082 1.2904334535844397
69.85575613636281 85.4641543396762 1.2892502865764086
68.37562769511435 85.54039324808328 1.287852107342167
66.75941257575884 85.62525344909398 1.2876652747195723
65.29186107041176 85.71826605290903 1.2871557567795693
63.7912605517349 85.83079306015928 1.2867585676750237
62.27121325069504 85.95984378240482 1.285975137522852
60.76433291303663 86.0959879417881 1.2849669471385845
59.09925883453859 86.34518085716407 1.2842996732638408
58.03188529498702 86.5150148212492 1.2861480909530651
99.44354802692794 84.05279989014258 1.3050774717941798
97.82182686438026 84.67689405271405 1.3052644402846665
96.2160006685776 84.4201949908618 1.3039442186231378
94.67119871241304 84.19718500034229 1.3023629791659956
93.05432324601193 83.98467800066581 1.3005631629407026
91.44392032748081 83.77193269066156 1.2991366846028711
90.28809093670331 83.54512559632036 1.2969816611743297
84.65992599562827 83.5476748604994 1.2941001855147758
83.56907358199359 83.8480057534809 1.2938978947478028
82.2389338153073 84.0621525528503 1.2937941575742713
80.64503576930797 84.32059900331855 1.2939057088236148
79.20764302567761 84.56413537624412 1.2926587912768333
77.68647864724512 84.85119506785585 1.293026184773673
75.56478973201948 84.23107377358289 1.2892246920839323
89.20739820186134 82.30616179706263 1.2927865301075572
88.28807990698378 81.64662784398024 1.2918380328322845
86.09978057547286 81.64490307801158 1.2911955836851066
85.09901921453871 82.37309115651233 1.2902513826878321
87.48329212609158 81.44554856703778 1.2890831020651028
86.44793447187193 81.4752075221429 1.2886603173787765
120.0997986691563 86.11107124295877 1.3367910117809276
118.99638195773272 86.13116492181464 1.3312577629649356
57.515914861882976 86.79288467692969 1.2911634362926225
56.69863269686764 86.72635454249202 1.2950277597685425
119.93317576867926 85.8854702273519 1.3347140693130295
118.81139517628529 85.71917094779923 1.331694587909756
117.17544161853883 85.54580333642294 1.32962609239507
115.61358715714064 85.43161691124322 1.3288626937561918
114.12106183013404 85.3472088056779 1.3273329762279846
112.48550685001591 85.25702845880797 1.3255957214644039
110.75582924951499 85.18166738841074 1.3243494668586469
109.36046225010993 85.13271146088421 1.3234743544288092
107.66719386912267 85.08657291194305 1.3217804481249187
106.20558794792034 85.0413322312442 1.321354837785483
104.4167955732919 85.01123490862076 1.318986280016612
103.02465104385122 84.98086749510783 1.3192491386317633
101.45836231773293 84.9587857993717 1.3173285700225688
99.97154736144824 84.78766925070495 1.3159700067959486
98.73741971723257 84.71135711971624 1.3155534122760242
77.69696371127486 84.90150813511977 1.302263705083388
76.62133470479623 85.01990507935021 1.3005587943032415
74.96081324042837 85.22888885380912 1.3007044744699765
73.45253378856384 85.28517403904053 1.2995765038967753
71.94536097131507 85.34097149711637 1.2991557086593055
70.38041102154403 85.40390872567652 1.2983576469230815
68.89537635563401 85.47088385752907 1.2978632486950565
67.32819136251436 85.55045808937741 1.2968653177726508
65.7820923054716 85.63608713371997 1.2953101812943486
64.22078182483088 85.72429143525197 1.2952883727660165
62.727313747294986 85.83499345261619 1.2945314335855158
61.12809865821478 85.96887729363391 1.2934471019892364
59.641090499417345 86.08626539540359 1.2934243017962588
58.036881186264154 86.26466072581232 1.2922891427451468
56.85418023947868 86.43150452897419 1.293891181708543
99.8724843919753 83.87846617503271 1.3136596720795943
97.86915451720193 84.57565045528237 1.3143137952723898
96.59157013992674 84.3874043958756 1.312725904736702
95.10366082461196 84.17932639190165 1.3111448005815878
93.37338441773593 83.94530136389665 1.3101446453088597
91.87589616486814 83.75318081342355 1.3077839034786416
90.64783376173119 83.48511889795637 1.3067926355496746
85.16444601603172 83.486487268413 1.3019923719695052
84.16682434558166 83.80552996001039 1.3036236052123442
82.51964901651445 84.06566815918355 1.3022122244110088
81.0651724683779 84.29916584750693 1.301905871216469
79.4992687829223 84.56415952659171 1.3016762048235553
78.31434452622443 84.77875606793836 1.3016334333600972
76.0110729970504 84.07960757255991 1.2984561892129625
89.72074809680727 82.54955729814543 1.3028176017644078
88.3310591560988 81.74782454662507 1.2999466604398433
86.8577374384727 81.72886725742835 1.298770320641403
85.6697486844789 82.51514454638766 1.3004615346122024
122.06296938171673 86.00971907515304 1.3456748840648525
121.11905333924969 86.06983003056527 1.3425265205877324
56.58702697480172 86.68937146948548 1.3007399101508295
55.78867053568271 86.67379856534679 1.3023469347963526
121.97014470050043 85.77561259940461 1.3448943756083418
120.77357187899148 85.68182696901108 1.3417392067830451
119.15425997480264 85.51145332277925 1.339593842575335
117.48866629862299 85.39718841784143 1.3384837849069833
116.01358549541487 85.30638440407739 1.3375650916145643
114.39325931669369 85.23612440883007 1.3352885708301558
112.92871033685347 85.1740525901216 1.3344462788701859
111.19185556122677 85.116977312495 1.3329421712217608
109.72718009394197 85.07203804385519 1.3320364689863773
108.22115163294404 85.02962950887199 1.3312582646555164
106.62382349734027 84.9966773649901 1.330331901882811
105.09109723316038 84.97889317757608 1.3287350799490165
103.52785499347101 84.9525368255384 1.32805937352877
101.9957941485707 84.92480718021201 1.3269412556193472
100.55660330199392 84.74379074046709 1.3247416978491389
98.82617698751001 84.62590599145118 1.3241838326616975
98.03655696205108 84.47263746668405 1.3262819492354543
78.51950075727919 84.79905131608668 1.311276694999545
76.92274030042691 84.94437293577079 1.3108427198916395
75.40313756841714 85.1945178029754 1.3099683059987917
73.81887226456128 85.25639469184291 1.309173580842751
72.3371212623008 85.31231136146471 1.3083560771258707
70.7842485776491 85.36492807261949 1.3074221031397137
69.28443415915214 85.4214745471953 1.3064139354584585
67.69683770208817 85.49587070940831 1.304978631309137
66.1763475893103 85.57030166807448 1.304624480777893
64.6095056252134 85.65257110817552 1.3039172066943627
63.167684397772405 85.73486937953257 1.3033280365471618
61.53973319309014 85.84130779761352 1.3028707019325967
60.027862343114585 85.96105006784848 1.30196788049251
58.51057866410674 86.0906921181102 1.3008542896095168
56.95589766695097 86.27649294309028 1.3004487981200592
55.78342265823849 86.39179829765594 1.3020229121898321
100.25888291019298 83.88385163126694 1.3227660761052424
98.04763042029087 84.52853904767166 1.3212874320201686
97.08773685426752 84.37213065191835 1.3219475370142924
95.5360346848905 84.15819444368331 1.3205469615856442
93.97357730548872 83.95121340432203 1.318514235194436
92.30766870181996 83.73462638591607 1.3169149387847876
90.94101027059963 83.45071638431838 1.3157526920314129
85.7855954231411 83.42617690430572 1.3120765021633078
84.60913492999323 83.79343833858027 1.3125713316312353
82.97252244579963 84.04071365113373 1.3116503531392159
81.49637184717007 84.28773553704323 1.311841004560652
80.05075384956544 84.52897260394352 1.3117196360161063
78.96845909000743 84.70297215804646 1.3092128750711192
76.45277935746378 84.05178103855054 1.3073906421271777
90.03315658579719 82.59392017061809 1.3115097109269154
88.8274106725056 81.97798440900182 1.309885806488949
87.37230633963031 81.93066709039825 1.3078745932246438
86.227334915494 82.52151316847754 1.308982169527908
123.9746960223661 85.89398630353764 1.3545352664238017
123.0588666942597 85.94280794538916 1.351873290612607
121.90286804693476 85.99074115151376 1.3493453070786203
55.664106578806 86.60823291783007 1.3080380587999865
54.58049572182358 86.62891726965769 1.3100054864353585
123.95576273170124 85.67654694918518 1.3549911658027178
122.77706518334904 85.60308279359162 1.3517652856967899
121.28634630838295 85.51335735379574 1.349129349376223
119.46096358015947 85.36986810455144 1.3481711200593192
118.0495422870798 85.28885078300486 1.3469768311758072
116.48811287506079 85.20899062275916 1.3462526981614553
114.865463500148 85.15870618077878 1.3442591292450041
113.35183370689968 85.10704256358517 1.3431400930224797
111.74239213022148 85.05508018475771 1.3423698519494447
110.2237980240046 85.01894522954159 1.3407825633285992
108.81768083915 84.99329103844529 1.3401086565082094
106.99889619140582 84.97170157069051 1.3392436469046634
105.44620384410695 84.94893211158957 1.3375015282814071
104.10551582166124 84.9189566389297 1.3378163056528323
102.44352851332162 84.8984769243421 1.335465892575577
100.73528721055038 84.63424314315522 1.334379614967557
99.15931994547445 84.58655732930133 1.332481096529039
98.12872999291055 84.41992217199866 1.3328118018595239
79.94472615523678 84.59460164544518 1.3204294328691377
78.93590287985752 84.76770406113752 1.3195538175837926
77.51906338318547 84.88289407521675 1.3191007999091051
75.7959219278596 85.17203740328758 1.3184505382696048
74.49296804050066 85.21508340702138 1.3182927138896892
72.97219569235206 85.27286739643615 1.3175141955641028
71.26675935437189 85.33923775606512 1.3165082269341817
69.63592235501898 85.39301343008043 1.316485104622283
68.1427241398556 85.44288127725714 1.3145517202566188
66.51807865401818 85.51361523844875 1.3135196417295434
65.15130530443187 85.58186173855584 1.3128154952265005
63.5602634552298 85.6677278108638 1.3115694202550163
61.96455709565156 85.75492795544042 1.3111307598687694
60.49679525590631 85.84447760593207 1.3103512835793305
59.04689461684064 85.94228979897323 1.3106954887783275
57.5175953726256 86.06445895711494 1.310003300539025
55.78370125903335 86.24402358411501 1.308486923527788
54.74496857639823 86.36270231315059 1.3090020989900262
100.68460308237304 83.73435005345925 1.3308886578235593
97.33027350708181 84.33300826794107 1.3297863000420462
95.97397325499047 84.14420944989988 1.3284490337083812
94.48097072490307 83.93094928018193 1.327677678081353
92.73006749447512 83.7285376383143 1.325667039268052
91.27440047737342 83.40858314389669 1.324514695281511
86.3100809408564 83.39892687217248 1.3209532808137103
84.96532913921897 83.79908787536554 1.3209090415505556
83.44714878660147 84.00427970040582 1.3206614640061538
81.99626889063467 84.2466699944815 1.320517072017947
80.66937512125895 84.47027382524823 1.3199756635816673
76.82357561834041 84.04465065749967 1.3160175410091073
90.41059254393075 82.73054243078647 1.3206496483856023
89.32800607266535 82.20432991185531 1.3195615912331204
87.80159543876898 82.17697657325213 1.318027091725224
86.93097985682597 82.55265242292766 1.319594802203757
126.09861624185754 85.72111543978946 1.365353636236303
124.91827440135876 85.8260374311371 1.3606376423282645
123.69188373401461 85.8322607915127 1.3578271646040685
54.33283585065416 86.56312873733916 1.3165206149522735
53.44930461992667 86.47890826168585 1.3167166042363367
124.70084096830446 85.5558239587304 1.3612745635324843
123.36683820002979 85.46035110175116 1.3594382373828546
121.7629466789408 85.3436958719567 1.3590630459417905
120.04649055132938 85.25619277576132 1.3571938368417953
118.61428702755813 85.1982559221883 1.3558873240677198
116.91497793082934 85.13123083036146 1.3553708246582217
115.41878442671705 85.09202970757921 1.3534350385502254
113.59383601896718 85.03804130012735 1.3520502860608203
112.23752756623236 85.0067254647388 1.3510564932404867
110.60634905064302 84.98658224740178 1.35054076940008
109.0650240071562 84.97103707888347 1.3490006000695092
107.51826566628313 84.94371866501496 1.3480102443064879
105.96110939755945 84.92106972439812 1.3467772289482467
104.44237946697797 84.91379825652022 1.3461650303703612
102.78980469741663 84.91575686912411 1.344376569069239
101.24750224964221 84.58588462591038 1.343394720763601
99.63569443831157 84.55525915756475 1.341344395767942
98.25537514412343 84.3572242004168 1.3405365950940091
80.72586476125878 84.50349324950284 1.3296671662564319
79.40364727299584 84.72647522085165 1.328655924631766
77.66560432564552 84.76967150180519 1.3280006150696748
76.3410008425797 85.19998591848886 1.3279869327634515
74.94734541693308 85.22306360119993 1.327030409429395
73.25610211772398 85.25794272221604 1.3256147676368906
71.76442483424603 85.30589658538737 1.3257026342564506
70.20896928684817 85.36435328526386 1.3247437778081166
68.76540481844673 85.41574927164967 1.3240417406173728
67.08476938466761 85.46682914541341 1.3225252029253178
65.57116680721607 85.52279890602156 1.321716092767193
63.928126089295496 85.6043589088052 1.3206337631896787
62.34060253284267 85.68312516770166 1.3200861188449786
61.04406249714815 85.75145219179987 1.3197907104633657
59.189740820085234 85.86211638184122 1.318376891374943
57.83913489091245 85.95815868012076 1.3177100749749169
56.36397408429629 86.06672871974483 1.3176023731852973
54.8360774600996 86.20792562000396 1.3162984899049446
53.68168523356451 86.28940170220724 1.3180243785636654
101.18758475255366 83.59288016855164 1.340325479360387
97.4063933626243 84.25035572531844 1.338187190333573
96.36986327448358 84.08651783214911 1.3381600551637667
94.84815656610802 83.89146228271697 1.3369012818595705
93.24658634230232 83.73200231097714 1.3351620770623644
91.51822128639422 83.37360750671522 1.3329329010665534
90.85889206866707 82.78131902990081 1.334314940550938
86.91948854559118 83.34112887712396 1.3298059216706752
85.44956466350727 83.79489279803389 1.3299170851687914
83.94385401093807 83.9693304973402 1.32910770239151
82.51645683405012 84.19120448197964 1.3299494933872937
81.3801072784414 84.38211973802173 1.328879717935478
77.29870287595611 83.81939893422746 1.3254905939894739
90.50770670562534 82.67141752202869 1.3261603491091896
89.7938525757256 82.40443023538413 1.3291449243937263
88.31608378979155 82.41529304967806 1.328040880736791
87.34230498065833 82.60513246361708 1.3260501231717299
128.1282044396549 85.71897707835699 1.3752467110119047
126.93665447549773 85.61306113983784 1.370961892586116
125.72094341372386 85.69968858673309 1.3673648285086093
53.178047966860866 86.25119442929699 1.323875316328881
52.33136987007854 86.42111038035117 1.3252512541829857
126.30993774571212 85.46487182772907 1.371128933824913
125.19968838649736 85.404400427474 1.3696080971254616
123.61345058201879 85.31671279315555 1.3680671236265063
122.21853034631388 85.23975450194119 1.3671851272283848
121.04857287496155 85.19706694283691 1.3656302978776877
118.8472445280098 85.12775196771233 1.3633102072944134
117.32135808983762 85.07031997083473 1.363315821915008
115.77985152262664 85.02664739057012 1.3624838614508004
114.36971591285035 84.99919721907376 1.3618601238563326
112.77022146842249 84.98738606166816 1.3603137682688025
111.05575490360607 84.96620796505837 1.3591312844852885
109.48563431885034 84.94411918548485 1.358304889926745
107.88517386919516 84.93845558822323 1.3565035908943648
106.47500382143666 84.9504641849365 1.356521937049164
104.79764259904188 84.95560546923318 1.3548581509326592
103.23218403307528 84.9567474401229 1.3534086805140337
101.78474919497012 84.57915874281558 1.3520515001184654
100.05383199745008 84.51731177837297 1.3504540317765716
98.41762618411352 84.28173859950913 1.3483994069330205
97.62080614586782 84.12123746364145 1.3495779348790957
82.34725309504469 84.22753249421474 1.3422505274711212
81.32525987947946 84.42036794838278 1.338288801411207
79.69242023739449 84.71219222751813 1.3370675511180858
78.31600025980674 84.78614030021915 1.3368688059511116
76.95783342578535 85.08093134667384 1.336953133886659
75.29457623242905 85.2688608867083 1.3360923988260651
73.75342534998414 85.30168567207934 1.336074108454335
72.24014395360501 85.3184556643633 1.3342477351433593
70.61460505142185 85.35024157613304 1.33353121383974
69.09154503703064 85.3935128604429 1.3330667467059585
67.35206364605689 85.45541250732688 1.331415509106509
65.82446792538846 85.5000561409701 1.3304464891654757
64.39806935852165 85.54653149612672 1.329996794270088
62.994631025565496 85.60477144538794 1.3295743890276885
61.21979859990706 85.70085710680002 1.326491302504345
59.39740718977765 85.78766566363856 1.3273209746910457
58.37302010044829 85.8497805571461 1.326237089747404
56.630908121109954 85.96267475278052 1.325774899570824
55.22578119819834 86.06674179522003 1.325414700140039
53.954551753677286 86.16856171055161 1.3248721226005942
101.5766413354788 83.31127588783679 1.348284823971459
96.74931845242538 84.01850623110772 1.3467254728544518
95.35810140831413 83.77312016145278 1.345185536093475
93.62677938055582 83.72759331896307 1.3439401527424568
91.7686036453056 83.28464051955828 1.3420348141758092
90.65216692418056 82.67339550282308 1.3401767601551113
88.69651672455741 82.61835167200906 1.3391913319509845
87.50413354037227 83.35381518362776 1.3392679678876627
85.9153673512539 83.79794201793642 1.339023965705888
84.35041782608472 83.8311003145305 1.3389514950625634
82.89810552927162 84.10700264690112 1.3382288328384029
81.9863625243033 84.28980556953036 1.3365165850044576
77.71623742836903 83.46103033989607 1.3324257885318838
77.42761735696982 83.80418903391963 1.3359061166516746
101.55399123352872 82.30690616196644 1.3479688123232738
91.29265408196714 82.17490050251328 1.3382807317194936
90.37591152417677 82.20162854438473 1.3368686931750853
88.86098198192273 82.52275735913085 1.3354600213156407
77.43747198160834 82.54105378045173 1.331683366484441
129.99338652383904 85.6501765877624 1.385970005515888
128.84105436480905 85.51749318633804 1.3813835913083774
127.56531902318648 85.37352517998062 1.3806383196216843
53.59642314725448 86.09068540545586 1.3336267581720314
52.52133350855114 86.20707290132587 1.3325127585246181
51.33222611674245 86.38698801562096 1.3333577164200476
126.82209198123834 85.35858335523027 1.3785537179091705
125.55518542148093 85.27777067887125 1.3782766019325612
124.05633192403775 85.19574244499402 1.3774726028599524
122.54183382211747 85.13607352339736 1.3765387223533385
121.48112848679582 85.08446385924346 1.3776184860080132
118.79496558429085 85.05636602125946 1.3705411556286557
117.73663172568155 85.01189873426054 1.3728951873576698
116.21935713208237 84.99639370866738 1.3716697261404491
114.85040481515641 84.98653941866256 1.3706540712154562
113.07322608264221 84.96766848416793 1.3694203636387465
111.50001921034614 84.96977654289262 1.3689571362835655
110.00067095453987 84.97895069555804 1.3675763693919627
108.53452879613221 84.98979327722478 1.3668002383675675
106.85258323740766 84.99402303067566 1.3655670831403648
105.30308048614123 84.99248562063092 1.3640386306764503
103.88721626230844 85.03751553012827 1.36359091718148
102.16163294423325 84.43921696991897 1.3607882916490133
100.57600704270082 84.47523589411836 1.3594163547522997
99.02515815239548 84.23844003029292 1.357877159059354
97.9030344391604 84.05834829101609 1.3570484663892004
82.55564376130155 84.21224156927123 1.346024525399242
81.83106961297605 84.33472039595645 1.3473448143886873
80.26680070007706 84.63226107060848 1.3466222281196185
78.89340120168511 84.7128648339681 1.3460211842375318
77.44885845827528 85.07081080855632 1.345607034507547
75.78739762462743 85.33356774039885 1.3460098031141368
74.23003815072175 85.33685881792238 1.3444078680964084
72.53390639120764 85.36958362145032 1.3433101694623357
71.05477915150836 85.39364978067101 1.3424138863957549
69.58787700339091 85.41477591023512 1.3417442593809885
67.94032926119327 85.4393956522049 1.3408119479143141
66.53260965744664 85.47750970460947 1.3404885076152866
64.85827306906741 85.52738280805974 1.338540934331596
63.446576357686894 85.56802568109646 1.3377886542113002
62.04378229794234 85.6138659876985 1.337848727226659
60.04287310181965 85.69714010071708 1.338226512934551
58.5513478350942 85.77704423887108 1.3359014840302486
57.15780164808164 85.85312624154258 1.334786978478132
55.544458439818946 85.96151179689117 1.33367232695165
54.43290865532817 86.03471869438866 1.3339823688946804
101.96441116731027 83.16201440308795 1.3567957534078998
97.04264339755996 83.77463039144445 1.3553579094320132
95.45416672552743 83.48894145695259 1.3532456516256708
94.16640765984492 83.6689363701138 1.352777188250456
92.20398903346806 83.30394453036682 1.3506305261615366
91.01971661229712 82.78530600557544 1.349054204649933
89.14017610264833 82.71095875253891 1.3467189238720805
87.94070975178572 83.43616070589447 1.34814992547503
86.47231709517774 83.78494162750788 1.3488661489396154
84.85733803437248 83.58390732253628 1.3470359682342976
83.36550457837109 83.8502587767432 1.3459503441679639
78.39888849792615 83.2908330780441 1.3414168628556489
77.64644982131077 83.45331686824636 1.3416668858532241
101.84773013651466 81.92973555256832 1.3540145618675306
91.46563610309792 82.22836671714056 1.3446570143231185
91.01321695938127 82.2288724263128 1.3452836440142122
77.71790901933971 82.15632782267565 1.3379765321248014
77.51553296851185 82.25505214764131 1.3398122413620375
130.6520240355371 85.54458588012689 1.3917571562037054
129.2415503892048 85.32337331933533 1.3901661026838614
127.83776336256321 85.24202973201717 1.3892578416119075
72.10242945422533 85.73450866237579 1.356949740247838
54.210860021208354 85.96827865081534 1.342449197355141
53.00905310868252 86.04184376463343 1.3420011695966092
51.442618014147236 86.22599811133767 1.3413855101453784
50.9085927399375 86.47593862159768 1.3454259500789256
127.06458882216525 85.22658237566033 1.3875130268329268
125.93684295423635 85.16240800981905 1.3873613098308437
124.58544609395153 85.11616281539852 1.3859464325396769
122.80028854986159 85.07064213476227 1.384542192623357
121.35265957882658 85.03304821814052 1.3840034692334648
119.83079870191025 85.01102766107313 1.3822813098201947
118.18650291352171 84.99692855077176 1.3816390955706175
116.59053840811082 84.98940808198772 1.379910627021185
115.15485641535052 84.99212710422103 1.3793702083318524
113.60361980334584 85.00360490845713 1.3783778310582895
111.96840661305474 85.01379692939251 1.3767603690596963
110.43293082826347 85.02493037528407 1.3764397261675572
108.9136239873284 85.05872576095763 1.3762438339417598
107.24612415491478 85.07860057524829 1.372960094793311
105.70339984180963 85.09255332591897 1.3705978581505427
104.72610574228037 85.10532336023606 1.3686231972707599
102.5877279212001 84.39698841235298 1.3691323752924476
100.98930170578667 84.402126325304 1.3682170345722573
99.18758836463103 84.15325494831887 1.3664800284062844
98.28508215637717 83.97495249460661 1.3650215259633287
82.99031555948883 84.04648357416359 1.3560090204807616
82.2857641076934 84.29651837943973 1.3563860590319747
80.78809405778685 84.55507288363151 1.3558501241772207
79.36766058099872 84.62224479171633 1.354139898108765
78.31907277711514 84.55141477652784 1.3532729264506789
75.59549997947558 85.44160595195079 1.3509110747796764
74.31993966076665 85.43003313210517 1.3517457766395333
73.04586446141124 85.44538945619536 1.3528150075625234
71.51974002069792 85.45303846031622 1.3522190561864622
70.05791524482308 85.46973291206909 1.351673209794157
68.52975258314044 85.48965237421889 1.35008192479078
66.83913327111848 85.50693489256862 1.348462507010823
65.31122757316162 85.53278272884513 1.3480671570865064
63.7363022696147 85.56271734136473 1.3468221577648551
62.23864841986487 85.60451913105177 1.3462701118594016
60.52414146645373 85.65554544908706 1.3462709964447734
59.11361272580056 85.71327213897573 1.344380174833928
57.61870573135679 85.78000196621177 1.343316330208378
55.984749237769336 85.85894823873137 1.3427333742898453
54.92171472767754 85.93366605432553 1.341372492200532
102.46296337062216 83.09030036409806 1.3656088762960488
97.44501880029222 83.54006694327748 1.3640633213179199
95.99525895161337 83.28328570471692 1.3617436604579376
94.55703746748631 83.56012981242014 1.361414868905596
92.9435544590154 83.61584752546737 1.3608561173533493
91.49005692491845 82.9556870903676 1.3580012681973788
89.6975566083687 82.83864336604951 1.356356168277545
88.32889591386885 83.54753196982239 1.3577825185217443
86.7681709437404 83.69929666514791 1.3572077359041839
85.19782885143466 83.38985142851931 1.3547697071198885
83.73024647267914 83.62822584170853 1.3551715384292036
78.8733648585683 83.28342805010303 1.3499529911602874
77.98371063975048 83.18261971442271 1.3497381444088776
102.2853772655593 81.56618045109097 1.3614839227924633
78.10533862815184 81.6367159380078 1.3451358360262393
77.77184934819681 81.73847085986276 1.3470771598869244
131.13270429348847 85.3524143462765 1.3996988373062935
129.71440000589465 85.2053349033602 1.3985877152014954
128.072434542198 85.15544683934326 1.396658698572443
126.9625930000875 85.07524430579865 1.3990389251485547
113.86737232720512 85.28655118307819 1.3916255233071027
112.51712602913682 85.2886364282564 1.3883458461870313
111.52845298323348 85.33816563494642 1.3860679105313412
71.14626554465897 85.72229756980896 1.3582213825110414
70.2373648620039 85.73326068728295 1.3595061741906698
69.00437188986525 85.80854643311538 1.3614524559717658
68.05481384428825 85.7704643686437 1.3626336527095366
58.11179473025975 85.729321285722 1.3566702897318594
56.54333013268206 85.78194450937258 1.3540457249343598
54.9972182774124 85.85654580763423 1.3513417386465587
53.31096031488878 85.95598209556486 1.3501318723551636
51.87772658429111 86.07149594008192 1.3495816163307222
51.08035232900395 86.29681052972091 1.35023218477551
127.16661348040172 85.1562521702665 1.3927696676381995
126.38594549659857 85.09755766600745 1.3945060626821966
124.78388675089099 85.05291102350674 1.3946177594216627
123.31320422530948 85.03080041072147 1.3931661816378194
121.8728325991599 85.0183181777441 1.3930395468643428
120.2643900966614 85.01088358498139 1.3912265788078975
118.69900641994147 85.01989325538557 1.3910303326150344
117.07198503524211 85.03314621952009 1.38966837835971
115.66259791567234 85.04843507204237 1.3891368441238416
114.17849209762718 85.05948296899496 1.3880986143757963
112.26391048532639 85.0697902415405 1.3850905807188543
110.8651167467842 85.07197039153961 1.3827924954811437
108.90070288498015 85.0893948522146 1.381511267508737
103.06741898876034 84.23467287766255 1.3777127303726278
101.36021049486253 84.33237063065016 1.3774899634117006
99.78444986780619 84.13358029173898 1.3756996102824963
98.77671193158614 83.81193335004296 1.3732836311424317
94.22124650989242 83.7310528295738 1.374590300933372
88.02629838820323 83.79780499929258 1.370265579508711
82.65447070994702 84.20887186902124 1.364952858366608
81.13326324864914 84.51341533211972 1.3641599250080967
79.87241844868304 84.38787899586552 1.3633518933769666
78.75998461371053 84.5236993989305 1.3623419448713152
73.6033024965398 85.50709864207514 1.3588711400079319
71.27937854457166 85.53308169640052 1.3570782235479995
70.40568558877297 85.51490880887238 1.3575945942042713
68.85214583311291 85.53600765768728 1.3579234662951487
67.31845037523337 85.56811253779009 1.358380505532322
65.84108955513253 85.58587203661924 1.3574197382267563
64.2010465826423 85.60063921685692 1.3557404457096045
62.610900473187826 85.6263857603508 1.355651749207697
61.1403841922925 85.65386434271636 1.3547091944425587
59.497606941652805 85.6929074971464 1.3533940524561363
58.08179047170957 85.73233811426131 1.3521176746509402
56.48223350710261 85.79950778736979 1.3494387041572553
102.84271184367435 82.92432545277089 1.3739683081785112
97.9977254419359 83.41420927900712 1.3724938261888153
96.5029364649366 83.09930406973584 1.3703396699542163
95.01363469880846 83.38999982598612 1.3700421385551753
93.44675725070512 83.66811301803966 1.3692503844357198
91.80171632245981 83.13174654954294 1.367143480146814
90.15971914591528 82.97443158035392 1.3660895874637338
88.74072950848941 83.6335020940713 1.3671412168474062
87.04322701684862 83.54165748976878 1.365429512709864
85.5522514852463 83.19560925087555 1.3636071878755742
84.02473620070901 83.4775072919372 1.3636440698654702
83.3870029582634 83.80712025551821 1.3656628323172004
79.34582000312716 83.1681274673804 1.3596101310279711
78.35642062815829 83.03965275716692 1.358100520743668
102.6501908038526 81.21805416208461 1.3694867989679826
78.56913291617195 81.343180509852 1.3535917592356168
77.98516178573155 81.34672408098461 1.352946958723066
102.70535443466756 80.28854353186938 1.36796975099227
78.24420571048893 80.40476955423489 1.3532279481239333
77.98826081256345 80.45113518387893 1.3527605732460601
131.65656537769115 85.24405379134032 1.408409786354733
130.12253692751324 85.13393451425789 1.4067193225470598
128.5166961517702 85.07408013251508 1.4057775919301165
127.00815165066116 85.04351164280969 1.4050382906672554
125.42173182475987 85.03084007062195 1.4044329528333614
123.87015629701148 85.2142622573264 1.4047988735503434
122.54341134972363 85.14006761962027 1.4040433354492066
120.76236298208002 85.06758039279086 1.402536602772945
119.17120044223064 85.11053683420099 1.4019141005574458
117.70309576608349 85.13950942935121 1.3998511906751483
115.91807700831598 85.21599140110509 1.39644707441362
114.73074280873331 85.31229991038562 1.3937922412729526
67.21889512871266 85.71267702558754 1.3636014371064795
65.91395638646054 85.70658947309778 1.3654539246770678
64.84618900636595 85.71544801961555 1.3656983361736514
63.10803280208806 85.68241251380499 1.364497085709283
61.59623225432275 85.69604521763466 1.3636778559677325
60.23044581907238 85.89647311562582 1.3631011118073975
58.35439131154838 85.73470411356936 1.3615378722666165
56.98738562124846 85.76111702732673 1.3604500262995212
55.358686124910925 85.80846798193714 1.3601419961707846
53.860615639311945 85.87941765210006 1.3592949587541867
52.368579138222245 85.97457014900678 1.3588037204677337
51.3890526840267 86.14839704351216 1.3598671812323464
125.11215179541234 85.03034827764915 1.4000473327166707
123.70987681524001 85.02853527714339 1.399717727846126
122.16065225443553 85.02742733612068 1.3989931048066038
120.61189047610873 85.03982214965717 1.3981461821630705
118.95590863001652 85.0549646970117 1.3967865814653737
117.36356172108097 85.07434780648036 1.396302926069125
116.17988189344766 85.08204109400509 1.395431494477542
114.91250470706412 85.09218282033592 1.3935669124914374
103.41218737207481 84.09163038269305 1.3867522446889875
101.74459725688106 84.2798622306023 1.3861581810908539
100.2154045598522 84.03881814316766 1.3840812212385387
99.38138060997387 83.60514325424877 1.383781438234992
94.07220604421738 83.69062321634436 1.380297221525599
89.07241317319497 83.73752918579879 1.378150252854109
88.33611938723605 83.76913645774759 1.3751498795715247
82.8436808833599 84.1804733422855 1.3728654808810732
81.48262602603124 84.47404998258874 1.3730369767228268
80.35079479100399 84.3367788397415 1.3724123908714074
79.19862678950842 84.4489090033116 1.371629888000793
66.96948422502935 85.60035873898941 1.3627299403988378
65.81683364710378 85.62113451977295 1.362424956874492
64.72986355990423 85.6337927621023 1.3616841645273967
62.84161564460207 85.65369784178148 1.360403734503924
61.653800558567085 85.66554995327897 1.3593599324173247
60.130510317269874 85.68849477414321 1.3582551553511644
103.20465348372129 82.73643125365601 1.3829213193757195
98.45992553228342 83.24859181705907 1.380846624604898
96.9324362959675 82.92856213562192 1.378806926987874
95.42598457569208 83.22505387926309 1.3794702608108962
93.84501913511218 83.63148807952246 1.3778369725330075
92.40833927820105 83.20667617806723 1.377201295110903
90.69638632513892 83.0875936506745 1.3754061653970138
89.63756909206282 83.5589816055733 1.3756463678161583
87.50103012568385 83.39763461335176 1.3744169776589983
86.05825350445596 83.04253213204325 1.3717822674458855
84.44253432021546 83.27849992462853 1.3716369966545565
83.68980867909026 83.65879656760607 1.3738268118044656
79.77666843327277 83.1250104012432 1.3683035937597343
78.86127833571831 83.08447824739319 1.3683788991297063
103.06245571282848 81.17583271924727 1.377910306112416
79.11648218349298 81.3588756757012 1.3632040119590505
78.34554173871105 81.26419302890486 1.361753953828495
102.99848082252646 79.79773664267044 1.37509031362036
78.61827462159258 80.10906284756804 1.3600077953630678
78.19129808554518 79.86389698572665 1.3594860889307312
132.94131080428195 85.3003317307582 1.4180743082384903
132.3641634458005 85.1755703750468 1.4178439946304864
130.55824223992653 85.06956293375951 1.4155229166221204
128.93819411799623 85.03377807730497 1.4147623146218649
127.47041381221841 85.03532557220882 1.4139753751827002
125.87373635515365 85.05766914947444 1.4132021159102166
124.21126944463428 85.34501763219315 1.413061961276859
122.82029571969211 85.22632286055247 1.4110030476545832
121.12045695686321 85.1281338976582 1.4079717354653272
119.816199658239 85.17820732730506 1.4056404397521483
118.31920442129751 85.12640416138642 1.4069823031897735
65.97225999646967 85.67055317856469 1.3732412658668807
65.72459735591784 85.79097411601514 1.3714830029012697
63.036828714949124 85.78280394949866 1.3696913286264618
61.80467927272822 85.79281324052936 1.3699085727401867
60.645018308956736 86.05606211919394 1.3719124343726332
59.08284426551112 85.80020084601357 1.3716277268071932
57.22309669349023 85.78204491809913 1.3690545630574031
55.78200463500559 85.79710945894482 1.368559320669279
54.305442406355795 85.83290123373077 1.36830015955183
52.75376507856479 85.90172402622494 1.3672903301744612
51.69537030087477 86.08422804554658 1.3670977323261166
103.72271277476369 83.9595244245301 1.3953288868756524
102.15980560422136 84.23729577752714 1.3949368174830803
100.60715223293947 83.90705577719476 1.392905856004598
