# .PCD v0.7 - Point Cloud Data file format
VERSION 0.7
FIELDS x y z
SIZE 4 4 4
TYPE F F F
COUNT 1 1 1
WIDTH 825
HEIGHT 1
VIEWPOINT 0 0 0 1 0 0 0
POINTS 825
DATA ascii
-72.63764914289104 -84.3806458615781 -1.5681372738800723
-71.6169113424404 -84.34946707622404 -1.5698649596627547
-70.24010122786481 -84.36322978582558 -1.571821754891233
-69.3092650683127 -83.67195363936517 -1.5697946281323802
-130.94334595842994 -84.94671470019574 -1.4417587003651713
-130.03692769780494 -84.79385881801808 -1.4437193849706975
-129.03742204807483 -84.8592220664308 -1.4465519346732367
-127.66936410860275 -84.86677289409126 -1.4500162550854179
-126.50988717864209 -84.7597741249817 -1.4525404770069001
-125.3784365101115 -84.87408372777003 -1.455686386368812
-124.04809542766682 -84.77394044006644 -1.4584675201514432
-122.846376651985 -84.8877904663701 -1.4616747234022125
-121.67475784601804 -84.80478312328603 -1.4640404505821658
-120.43844571188221 -84.79653620263707 -1.4667622718116253
-119.18431819992034 -84.89416159986739 -1.4699118899679908
-117.90504717949743 -84.76154160371134 -1.4722898515543936
-116.61638218872999 -84.62001225809522 -1.474504554220103
-115.4696762364972 -85.03188019209726 -1.4784660678307657
-114.35440469933714 -85.28350685179528 -1.4818229593079155
-113.68593085197973 -85.53492877117404 -1.4841648052517011
-112.22617569469818 -84.77338530159288 -1.4895627924433263
-110.94695298124395 -84.74106754731271 -1.4923395514793882
-109.70585491477534 -84.69740003253398 -1.4967024660553843
-109.16346048832652 -84.75665681176287 -1.4993583673846138
-96.93196569309106 -84.50741399524523 -1.52597122108616
-96.1647978714933 -84.4824858707652 -1.525950321880533
-94.79816440523219 -84.53101118279426 -1.527506043586986
-93.70202698501771 -84.70517321045625 -1.5301832175766794
-92.9264829134262 -84.69332716214146 -1.5323932957405229
-90.32450452140816 -85.27275436131973 -1.5344108251017219
-89.18074710382602 -84.94425274711315 -1.5359319103488063
-88.0035595726565 -84.58665223031568 -1.5372437873037836
-86.75729636747381 -84.50506533420463 -1.539752115262062
-85.55623418046105 -84.4273600979348 -1.5421098582689474
-84.38513730694736 -84.53927788595358 -1.5450549387944803
-83.08032340631244 -84.63398212668298 -1.5482622467193703
-81.8055688742456 -84.52445703006455 -1.5506131226961912
-80.56019079255528 -84.57074035435203 -1.5534260246048768
-79.31536358899132 -84.50333644949738 -1.5557513044564923
-77.83530349366981 -84.3089911889727 -1.5580989115786759
-76.76798891169881 -84.51318898326757 -1.5608812094691398
-75.55467982809944 -84.55599491515287 -1.5633600301662334
-74.17640880768514 -84.49712158415329 -1.5657704864399702
-73.34929922961454 -84.65609469729807 -1.5677269143535817
-113.14293029710774 -84.70218278642717 -1.4960277355558604
-108.77442778886927 -84.58917535208442 -1.502584384073162
-107.8847183649652 -84.69626392426622 -1.506735437997929
-106.54083481678151 -84.72360635459474 -1.5080399944891327
-105.19076940549924 -84.6500895563126 -1.5104903197762183
-104.5670416957149 -84.63587815355363 -1.516321134680116
-103.25276515748175 -84.64848430925045 -1.5201630743550005
-101.58010189442398 -84.59214576555497 -1.519005587742111
-100.22268571327525 -84.58119106022383 -1.5210482271763512
-99.27009963572499 -84.6659928391995 -1.5256188534220358
-97.86128517201382 -84.53112499994718 -1.5267518572557381
-94.37955456287911 -84.69311200229046 -1.5376236691165763
-93.70038782042062 -84.56286773391354 -1.5393923897231208
-114.18636088906634 -84.61782375828435 -1.5036229586719245
-95.0494068722308 -84.59502888174089 -1.5468518113484988
-94.54723940990817 -84.24286046096421 -1.5460556419019518
-133.29294949605577 -83.25310987198931 -1.4294811566303187
-132.26727635488663 -83.19738340852186 -1.4326212243812784
-131.0670175791254 -83.31970513473424 -1.4361412412592633
-129.97172163469304 -82.68459185108185 -1.4369187828340642
-119.3903768703432 -82.49661112865482 -1.4590318007621295
-118.5218251690537 -82.93906541842682 -1.4625862279805055
-117.84879815372398 -83.2661757790965 -1.4649609461027335
-85.78666096626206 -83.47653671485585 -1.536480449631383
-84.9029700699321 -83.12334185458865 -1.5371661804667782
-83.65350423464956 -82.63914797374133 -1.5377866452714497
-82.77135400094603 -82.27323388376183 -1.5387543321504618
-74.87722565936298 -82.08271880941524 -1.5564132400639168
-73.74073582449101 -82.40152744937296 -1.559797837923104
-72.61763907654141 -82.7502190509027 -1.5631102864874664
-71.23642518449239 -82.81361693215001 -1.565826181932946
-70.0050327285196 -82.79467974325908 -1.567796551339396
-69.1500051088419 -82.69275629618389 -1.567868320974487
-130.62670976219704 -83.93355468293322 -1.4393369820277468
-129.85231444123536 -83.47388645262329 -1.4398621530583082
-128.51130225212376 -83.22078304852323 -1.442327187264326
-127.40047654640986 -83.29083007626923 -1.4452683311091092
-126.19853336916364 -83.12111750528288 -1.4474961528822725
-124.99330866820114 -83.24927605407633 -1.45076193312921
-123.67943332051954 -83.08823915491843 -1.4531318471958135
-122.40905197734448 -83.14059323263461 -1.4561362136798093
-121.25196486070618 -83.06622256515297 -1.4584147408616104
-120.07658599364017 -83.07505540149148 -1.4610610830756543
-118.70281027304647 -83.39784485839039 -1.4652883588242684
-117.71054749958788 -83.64960767379702 -1.4684437235353276
-116.14539663449494 -83.6453589915258 -1.4718921064651844
-112.00087931616484 -83.13411982785809 -1.4853152335728124
-110.51987556474835 -83.00836138063131 -1.487595191108042
-109.44674574308306 -83.03148524207373 -1.4914745546901906
-108.9754289115575 -83.1783550992441 -1.4952481602733871
-105.05346887896894 -82.29808390965866 -1.5016216912047575
-100.13497977288439 -82.34457833546128 -1.5125911705401756
-95.80518412709573 -82.87236520880485 -1.5216104080100583
-94.41468276721818 -82.99137301968038 -1.5231623115924993
-93.48486592159706 -82.9109209673354 -1.5258493293391289
-92.5524653368492 -83.0310824694072 -1.5274956715711998
-87.93190500477826 -83.55474196990009 -1.5333035850808763
-86.10064405453673 -83.60475351403498 -1.5374970018777083
-85.32757814153854 -83.38452579180638 -1.5386014029806747
-83.97284970448268 -83.13298286196203 -1.5406597744959991
-82.61802834675173 -82.86596785252036 -1.5425888016036509
-81.43811625797379 -82.86480217872477 -1.5451644970597531
-80.182557419555 -82.97593129150053 -1.5483347774842553
-78.82937133566472 -82.80066118362576 -1.5506308374490587
-77.64832227822666 -82.80229420366165 -1.5531535558330603
-76.34633358911358 -82.85796415301337 -1.5560680701210663
-75.23303185982688 -82.93597442991828 -1.558628083447939
-74.06670983447141 -83.2689606695747 -1.5620334523198827
-112.85362835893739 -83.08947135883396 -1.492046213237002
-108.60329714536259 -83.00753944562838 -1.49817284134898
-107.69383954436844 -83.0457927355661 -1.502515277674277
-106.29638185172635 -83.06824361592015 -1.50383146821756
-104.88179944723844 -83.16660592084148 -1.5055430293196768
-103.9642068503107 -83.05496591949017 -1.5108627285591145
-102.75001232100458 -82.95387948632052 -1.5143411031353609
-101.09393285377517 -82.93409182605919 -1.5136124462677085
-99.85168858236102 -82.98535431039952 -1.517257686769819
-98.93485634975133 -82.94465489451322 -1.5215449813430495
-97.48180755780949 -82.89448520945392 -1.5227882042810825
-96.5889228384989 -82.61339175682512 -1.5216025269853974
-94.0314477600183 -82.87637157248835 -1.5327056225462532
-93.3920946699624 -82.96131817386606 -1.5353389616849273
-114.01561262775424 -82.9702090089743 -1.5004745256400451
-94.89402777411641 -82.90506907478974 -1.5431485272554695
-94.45185337310639 -82.95250224016942 -1.5443058458475734
-114.70638390015903 -82.752291910872 -1.504387177724885
-95.1709402680198 -82.41630487245595 -1.5471002303743402
-94.9677822460745 -82.49640846104728 -1.5475384780887733
-133.06408774631896 -81.62464001694397 -1.4249162706451408
-131.9686210111864 -81.68306629610574 -1.4283745883906676
-130.7214526635581 -81.61907741533443 -1.431403362182842
-129.5233654312059 -81.5457311629315 -1.434088786541426
-128.23813197686493 -81.4469420040554 -1.4367619187899912
-126.79175656877011 -81.27777846026197 -1.4382290948503695
-125.77320100319099 -81.20709973727949 -1.4408076460837562
-124.43222593424424 -81.21964278287174 -1.4444097992887668
-123.11351107323395 -81.15399430233302 -1.4469026199089299
-122.02789841176295 -81.36728726559346 -1.4499533088022476
-120.76036245064961 -81.81761340051416 -1.4539467650469051
-119.9248389960107 -82.21547606732902 -1.4566304850483012
-82.01431720143577 -81.95133425287753 -1.5397260120394989
-80.75703955247019 -81.4307824025187 -1.5407834899195993
-79.82750790467014 -81.2513442020328 -1.5422092658859572
-78.475235657593 -81.23369406327495 -1.5454631618656396
-77.25655361951377 -81.19920393893851 -1.5480363182465506
-76.03731286852081 -81.24058742862383 -1.5496214893172278
-74.67025965300077 -81.20243703839589 -1.553704581880374
-73.58966209575405 -81.24420103155546 -1.556148070217954
-72.21027588241941 -81.11700705076298 -1.5585301107442011
-70.97370957737375 -81.12097842811058 -1.5608948873213957
-69.69888032362762 -81.0721561018401 -1.5629952306918218
-68.68351226907697 -80.84078273060808 -1.5633186656238165
-128.34513272254298 -82.23066145903555 -1.4393212124099015
-127.18658708027034 -82.10988174850397 -1.441552619684601
-125.93645290434895 -82.04467416267056 -1.4441874279314744
-124.68949352197959 -82.00991865164343 -1.4468326885601615
-123.39334415176248 -82.05911452071624 -1.4498719768330628
-122.07504755029096 -81.95428408530633 -1.4523828778079644
-121.14186821221023 -81.96886485176418 -1.45451823301666
-120.21999025288119 -82.16056727280284 -1.457244193229366
-111.61202162071876 -81.40166591892407 -1.480978834558732
-110.14548399284791 -81.4004996394075 -1.4830600652338433
-109.15936458717486 -81.4603251084783 -1.4871566167752113
-108.71939769564747 -81.17056581728895 -1.4900540169015144
-104.4697778995964 -81.1841857158801 -1.4992492397472146
-100.39107191118957 -80.96544407583598 -1.5074832884153733
-100.00244560587043 -81.45117862391999 -1.5098950931277746
-95.31569200026311 -81.39442744985422 -1.5176402670340128
-93.9857708628077 -81.34694342087059 -1.51853256359411
-93.1562789381663 -81.24229839665965 -1.5209827556477036
-92.18427097119209 -81.30156937786161 -1.522661967195129
-81.93885095208219 -82.02113437068478 -1.5409060052284476
-80.97703442705455 -81.94047415540845 -1.5426782434380255
-80.11199113606708 -81.94576384208537 -1.5445909949518675
-78.60988275411908 -81.95259700162379 -1.5479179989761978
-77.68538815181122 -82.00131471235696 -1.5501274171677935
-76.4758190750355 -82.02410392629223 -1.5528215890423767
-112.51150761698399 -81.35088223309704 -1.4878835926431218
-108.38416435104759 -81.40695562589669 -1.494071697519606
-107.44024133010998 -81.41665077796556 -1.4984255111985092
-105.94423147325955 -81.25950265053957 -1.4992862473881483
-104.51719530602642 -81.58459858885121 -1.5009707310005176
-103.59029855981312 -81.28472354299282 -1.504886295117182
-102.35797033606057 -81.33484121817713 -1.5086885460057213
-101.1793684011597 -81.41120034812256 -1.50847740277733
-99.56345698821414 -81.27679121563733 -1.5127830448660857
-98.76078825365342 -81.39002519458315 -1.5174203378011515
-97.2738996918438 -81.33744616849944 -1.5190422953446132
-96.2411054850286 -81.0371244143794 -1.517766028855761
-93.68905278198872 -81.27494115431168 -1.528056901971248
-92.93020138483342 -81.11991980574163 -1.5295126801412688
-113.67968971053715 -81.41758961203358 -1.4959793905730703
-94.54032007042169 -81.17836241398084 -1.5376811477482948
-94.06214620011161 -81.29897448557043 -1.5398451451940534
-114.62842435161087 -81.18287763600136 -1.5022686551857545
-95.08176144965202 -81.02847962934811 -1.5443398736852612
-94.90035235780373 -80.9366296570522 -1.5460809754802207
-133.3077706441985 -80.00594349658138 -1.4181941962296047
-132.90780637336908 -79.9059575203616 -1.4195938480210821
-131.63288588418285 -80.04990539441962 -1.423740650221879
-130.34508102210077 -79.96324914860375 -1.4266189843566965
-129.16766928996748 -79.92176326976146 -1.4291542573030542
-127.86841756025999 -79.87241627246138 -1.4317998892833397
-126.31296907897926 -79.84101669001882 -1.433307709480058
-125.37437594230545 -79.98251095877548 -1.4367618189753728
-124.24466117633084 -80.27795812691217 -1.4410650446485775
-123.30862163112769 -80.57449748116265 -1.4439286233573676
-121.95708064146946 -80.0999193045641 -1.445674547174667
-80.17149224419376 -79.95523043363998 -1.537093190348546
-80.04276509339483 -80.3196231017113 -1.5378774137974223
-77.92231789954425 -80.30350643575682 -1.5427266299083897
-76.85525322103034 -80.10850253343068 -1.5444036956963971
-75.5585925031832 -79.72615025439197 -1.5442278026563463
-74.40204872244665 -79.4367850583345 -1.5475663618792448
-73.05394149017292 -79.66934222498405 -1.5516044991577411
-71.86708294067395 -79.58392014729378 -1.553913163647796
-70.61882060890176 -79.46091469567932 -1.5560881516286962
-69.35173963967242 -79.48736233108981 -1.5586174224490361
-68.37041190072316 -79.48655829929538 -1.55962841341449
-111.22702306930114 -79.75775561026705 -1.4768762410047105
-109.78237765552801 -79.78133950744966 -1.4783916568017634
-108.822087328107 -79.78052835978876 -1.4828142679481648
-104.68328774450023 -79.05344933989045 -1.4926180640928137
-104.1078602309242 -79.69198296943486 -1.4948776943392956
-103.28815619306765 -79.20846189794169 -1.4957998279622309
-100.22430825939824 -79.73774891506065 -1.5035859645513259
-99.54769318448669 -79.62619801262016 -1.5052287265545294
-95.1291617764079 -79.67137703215334 -1.5131844634326255
-93.69731998039418 -79.58104898734088 -1.5132451901303177
-92.78422419690312 -79.57287368935644 -1.5162342070933525
-91.8806281748615 -79.58384204016285 -1.5183778176932847
-112.2911340450522 -79.79605380128237 -1.484043286542709
-108.41524365711226 -78.99133512944042 -1.4845432603685047
-108.14534834705982 -79.86099426356043 -1.4901653480636285
-107.08839659210584 -79.69000583168365 -1.4940761599481371
-105.63375004061692 -79.71065809018515 -1.495129441739148
-103.07166682028743 -79.71262038533105 -1.5000310554512994
-101.89331548414533 -79.62196081342469 -1.50271578915818
-100.9879583744207 -79.94940114179681 -1.5037801863235374
-99.24468548590487 -79.67806865512128 -1.5084546088950646
-98.31133750895894 -79.67654668852785 -1.513312633132702
-96.9775141657388 -79.59830380710115 -1.5147202533289885
-95.94306399750852 -79.68332259012644 -1.514481269966889
-93.41637023951566 -79.55333446665466 -1.5242534414499131
-92.70994930816491 -79.66039163519568 -1.526263588826577
-113.47268204684775 -79.71172378591058 -1.492012755541507
-94.22586139406091 -79.50412415488674 -1.5331834983702601
-93.74277475049209 -79.51851051211099 -1.535624951945883
-114.98348922199142 -79.16538388697597 -1.500258481642523
-114.52429614859365 -79.62611716263282 -1.4999508364553333
-95.03164078121205 -79.5147424279186 -1.542222660776759
-94.66569456703095 -79.6688757441858 -1.5436625525617076
-115.2992717061115 -79.0040006625536 -1.5025047330966077
-115.3887351890274 -79.27095560811861 -1.505046663450481
-95.48800011812912 -79.11548828601738 -1.5469966020185553
-95.40664276895373 -79.38979408201577 -1.548955751955226
-133.02846190874703 -78.82525001993776 -1.414746043662948
-132.4331209193935 -78.21224153854405 -1.4152007796178931
-131.11839956016254 -78.14136158983278 -1.4183543829924974
-129.99359377423647 -78.29802512016423 -1.421373312452756
-128.79319662180555 -78.39090274948082 -1.4241295719872302
-127.61114328279928 -78.58657433123763 -1.4271943948602595
-126.42843903687685 -78.90016236428545 -1.4307696067383882
-125.59826058950807 -78.65024626854975 -1.4321152617281443
-98.24685734700913 -77.33349510246452 -1.4831583318032349
-75.73771397057475 -78.67879879282316 -1.5416004368390537
-73.73003108189968 -78.57675242014271 -1.5454463490839958
-72.65400761788132 -78.29577239458555 -1.5467774848083076
-71.36167522721627 -77.90525950979111 -1.548559855643834
-70.27829043838366 -77.83987974488348 -1.5510112811088037
-69.00953933392432 -77.9813465807359 -1.5542905485943086
-68.18265670691467 -78.05162813443205 -1.555520713764106
-110.86165900792284 -78.11286230686378 -1.4720229945235774
-109.43421676798981 -78.10604674840806 -1.473362160594736
-108.54027769987245 -78.16627532662545 -1.4784347083387694
-104.48500993162376 -77.91897513240482 -1.4893136343971853
-103.76763585711531 -78.07918965039411 -1.4897803807562986
-102.75295836677587 -77.87600009263106 -1.4927400358199923
-100.81084824517052 -77.63548901192969 -1.4964305157624629
-99.9032854947717 -78.06922764291527 -1.4982263419901747
-99.15926986277458 -78.01653051666628 -1.4999997694691936
-94.7602795894515 -77.95518589545075 -1.5090301412962055
-93.30972941523528 -77.97672300980662 -1.5084965915790831
-92.4487380786299 -77.97568478267863 -1.5121544327247276
-91.55295925330181 -78.00714698436862 -1.5139181702225977
-111.96362568676764 -78.07206382752021 -1.4796299361790286
-108.31265686719766 -78.15255665544265 -1.4822406696875374
-107.8354959007175 -78.0904598393573 -1.4857110955940533
-106.68357099473668 -78.00153320323405 -1.4897857752729304
-105.28564201874256 -78.07472252957655 -1.4905013457317136
-102.34678548246166 -78.034473629401 -1.4954292061722063
-101.53462757886807 -78.19539412344872 -1.4978416787031557
-98.84184598874809 -77.94826109781864 -1.503917446200814
-97.96402548791785 -77.97897425367543 -1.5088372670579397
-96.72061848504444 -78.01365067477609 -1.5106723880392128
-95.66754232093803 -77.96395493482366 -1.5103651149785045
-93.1082170339694 -77.99917246771062 -1.52024538578863
-92.38616981887826 -77.82271315650524 -1.521673947471567
-113.14510851764996 -78.01157124860241 -1.4872257627717984
-93.95667486703825 -78.0414442451617 -1.5294849581131882
-93.41825644033361 -77.99326469581179 -1.5315022719519924
-114.67390527579275 -77.9964834838272 -1.4961472504038267
-114.15385271796671 -78.12034801879653 -1.496484238235377
-94.82540861532064 -77.96313170706898 -1.538629343262587
-94.37621983575742 -77.85347369198583 -1.5401644087674236
-115.48407654427706 -77.93455771447267 -1.5024256111985028
-115.31146975389937 -78.0761911574468 -1.5044890384703047
-95.41268480127304 -77.87626005897481 -1.5447783216686748
-95.49177578511906 -77.85682354307826 -1.5483461961423342
-116.25371592831473 -77.34078948664286 -1.508170187807523
-116.08109862173514 -77.46507753379124 -1.5084047727253351
-95.96279183695472 -77.42163419939774 -1.5522679045421468
-132.0906428573728 -76.6271525016865 -1.4105900814798322
-130.75947650905917 -76.62732469175504 -1.413704288840025
-129.58825333339064 -76.66350894647853 -1.4161402354932948
-128.8241899547064 -76.614773323139 -1.4168874027463576
-98.06851432324423 -76.35095419603606 -1.4805581504620842
-70.89260216392094 -76.34263193812217 -1.5439158451282717
-69.83229359623854 -76.18544484837759 -1.546053901568916
-68.59233008606996 -76.22479561654946 -1.5492330283661695
-67.79157860123938 -76.3412319737899 -1.5504764181200552
-110.62420693413853 -76.4636466134005 -1.4675312360960036
-109.19291978472195 -76.58430426154133 -1.4686965158815712
-108.25906991921102 -76.4554792824132 -1.4740401587221732
-104.2716173136503 -76.32816711221815 -1.4847066267006768
-103.33095568517373 -76.50110258773739 -1.484959832463087
-102.2584364247866 -76.47025924751404 -1.4886968961290283
-100.99745740734566 -76.45892651399406 -1.4921306543445851
-99.6391387175095 -76.61710295676107 -1.4935998272633095
-98.69266128992204 -76.27274758757098 -1.4954150144707703
-94.289380002965 -76.38960175600616 -1.5048475939479662
-93.03417875052632 -76.44441314104157 -1.5040386509426718
-92.10261359474524 -76.24932354437134 -1.507839113614097
-91.21355002725804 -76.33119009865163 -1.509262056378092
-111.66411712024814 -76.47153484783647 -1.4750373485241577
-107.9980308752872 -76.3861965945019 -1.4776464699642753
-107.53775684304814 -76.46769122777633 -1.4814635025788292
-106.41554745581765 -76.48245337024571 -1.485547766228232
-105.10628088428207 -76.48925236594619 -1.486025631043418
-98.40673187155282 -76.42448339808152 -1.5003545969393333
-97.68673578034395 -76.32067437035323 -1.5039647079569456
-96.34573752640321 -76.42792288328386 -1.506517367003085
-95.33243823981503 -76.19977021093476 -1.5057202945368833
-92.76879289075966 -76.33096971353612 -1.5158256251184496
-92.14668411032176 -76.24877836910775 -1.518068283113533
-113.62462230297271 -75.90071275787591 -1.4853262105146972
-112.86451507861662 -76.46919247675208 -1.4836565402060697
-93.66026071223258 -76.24138271212773 -1.5253058467656557
-93.01617875108512 -76.33299300386228 -1.5264213849997714
-114.26193193203672 -76.50285335817179 -1.4908680312961051
-113.70186942964254 -76.38919790574741 -1.4919096039789035
-94.54443421753632 -76.2347573204199 -1.5343438086672414
-93.99963327900689 -76.33787058690572 -1.535771959606924
-115.44384878533847 -76.39797697656553 -1.4997544051197071
-114.92653253426907 -76.20749711046437 -1.5000006623342255
-95.09748376061623 -76.10449242359653 -1.5399655252203528
-95.21037341829545 -76.21376662432941 -1.5445098509683732
-116.36278526015678 -76.30561747998917 -1.506935099711827
-116.09054261257823 -76.19825371167387 -1.5075381940256978
-95.96347400577741 -76.14278590428867 -1.5512509250995796
-116.87278678568411 -75.65783556838977 -1.5107968856558105
-96.59889665089374 -75.42852877567765 -1.5559678580303926
-131.6702935498028 -75.13870913809839 -1.4065160788302304
-130.44139295127434 -75.01494201385839 -1.4086386165509548
-129.24749553009886 -75.04654025819937 -1.4110172294963323
-128.4984711262117 -75.17358735324216 -1.4126876234232846
-97.88643543080146 -74.80365617455631 -1.47717713063197
-70.62021171561153 -75.10590281463558 -1.5400514268229595
-69.3947290697852 -74.82333147732494 -1.542086441540228
-68.24328838157311 -74.59806877303984 -1.5441974009459054
-67.52822818179126 -74.84287848923267 -1.5461484351788068
-110.3015605396557 -74.70658141358079 -1.4628986859528512
-108.85181035634996 -74.85330389886724 -1.4637866194810136
-107.9686973662255 -74.95452425039431 -1.4700665233372032
-103.941808466889 -74.83394798464991 -1.4801395977650418
-102.97657721108517 -74.71824523537431 -1.4799896896354183
-101.87534069611466 -74.882552750921 -1.4836110285374176
-100.55781241799258 -74.67266924632305 -1.486423557136098
-99.1752641741139 -74.66765690539584 -1.4881971121388415
-98.21544168338949 -74.64949773599129 -1.4918419539672738
-94.11657443457202 -74.7295669844745 -1.5006069513700349
-92.7651898720069 -74.78259585122069 -1.499440425504402
-91.81188539738773 -74.81955326349228 -1.5036095411925472
-90.9673485476299 -74.81189683245071 -1.505603056108704
-111.36806678648607 -74.78024401892925 -1.4706440747916345
-107.628691478687 -74.62705948520697 -1.4730013439883154
-107.20428277431239 -74.77373851920076 -1.4768304019340508
-106.16138532501948 -74.82677015343258 -1.480702848878807
-104.90946609274073 -74.84713988797569 -1.4812486000320768
-97.93222891894814 -74.64923832862308 -1.4953763959405697
-97.38410138364478 -74.79033952107352 -1.4994408578968097
-96.12351487200907 -74.73309153319137 -1.5018697694355412
-95.11263637051353 -74.86123460427352 -1.502041636008
-92.47057558216397 -74.61810465949547 -1.5118119974284738
-91.80873552967407 -74.65960079139772 -1.5135060997146932
-113.48711123187321 -75.09067616324396 -1.483279704793544
-112.56746792619023 -74.72238108418702 -1.4789654552552545
-93.3265747018566 -74.7446078867533 -1.520891845024264
-92.6868158960542 -74.63590874081876 -1.521919632824582
-113.98435369311957 -74.92315315134661 -1.4866544436287024
-113.4210073791767 -74.78998432456966 -1.487903768178672
-94.24958017761888 -74.62269317766969 -1.5301382421291292
-93.64638746968956 -74.68057086958544 -1.5312764470547233
-115.15867573605138 -74.77365820421826 -1.4951891453456598
-114.59873653762558 -74.6441035081555 -1.4958660191782782
-94.9042506605727 -74.56756191629692 -1.5367180866782002
-94.75623341378558 -74.5886560771429 -1.5399412474565675
-116.28013915724328 -74.65238651111717 -1.5036201442079469
-115.90758377362471 -74.71069465556879 -1.5047991856570218
-95.77538137987523 -74.55829794556227 -1.5485429316738388
-117.13319631284665 -74.51565722192429 -1.5108992128886092
-116.69985681105034 -74.44943033080085 -1.50969081741172
-96.48106260025162 -74.3618023138902 -1.5552071953938147
-97.01649025763074 -73.747560274197 -1.5597457731142277
-131.4304627573924 -73.83052489443543 -1.4023627164797576
-130.46390380933906 -74.0442979851688 -1.4050722447525419
-109.71534233781232 -72.51398653516816 -1.447791336398675
-109.45409249708395 -72.8411710510056 -1.449479199481672
-107.35708866772451 -72.881958494333 -1.4541492665469131
-101.62393339415507 -72.66281864003359 -1.4681839619894153
-97.67586416164558 -73.06708817036372 -1.474553964474243
-91.77648633168761 -72.81816326163272 -1.488708253114302
-89.42750225902665 -72.72171725718826 -1.4930065764094083
-110.03910460888127 -73.20398003804206 -1.4589306507896431
-108.49233990318669 -73.12365310069424 -1.4588537254363352
-107.62700195336912 -73.22142307955298 -1.4646479852219352
-107.25527277753358 -72.94983685023422 -1.4685721989091176
-103.72537289539427 -73.03247715737898 -1.4747543463754145
-102.54684429047114 -73.11760822890712 -1.4756466196633944
-101.34457424269522 -73.05825017934721 -1.4782633927598716
-100.11100048972337 -72.92043469058636 -1.4807887925209806
-98.73056201715922 -73.0077033161637 -1.4832501007823196
-97.76798202552087 -72.969838723154 -1.486542099578525
-93.82568342215865 -73.13463493091353 -1.4961144003344427
-92.531939134764 -73.04071268687136 -1.4940791833908509
-91.47160758652393 -73.120276447273 -1.4987388429634634
-90.5854488205097 -73.21567538816393 -1.5004969941719986
-111.04256689292143 -73.14290020315431 -1.4663091252587759
-106.96658333333465 -73.26505942969274 -1.4722189092350884
-105.74905488068912 -73.15603162475675 -1.4758062007416117
-104.68789417190736 -73.36811379106334 -1.4767899189455493
-97.56898517114315 -73.27488921012664 -1.491364808946487
-97.04988036373506 -73.16120523838461 -1.4942703609375283
-95.70255596494482 -73.07527512218874 -1.497305900327335
-94.80089483178837 -73.14017798700526 -1.4973058336807452
-92.1857347163344 -73.09530352247445 -1.5079543590648503
-91.47415006036692 -72.96748460725013 -1.50888920956689
-112.25474581494653 -73.04712803729963 -1.474595558837484
-93.02632300805706 -73.07358381768941 -1.5166126899062582
-92.33966885693565 -72.8323032094724 -1.5170961217190904
-113.72172106256752 -73.09438055202727 -1.482355816481826
-113.12164568149353 -73.14357155302125 -1.4835990669254504
-93.86850995693067 -72.95328707615704 -1.5249633524750072
-93.27839244728332 -72.91755463534565 -1.5263715559288824
-114.91349049210416 -73.0351184744892 -1.4909366725042643
-114.32197026832031 -72.9735396502075 -1.4918416705560653
-94.61651091940641 -73.06614283413035 -1.5326385353613308
-94.44474825974669 -72.8431661266825 -1.5358236378980246
-116.07160143732116 -73.03478490290829 -1.499606701604167
-115.47706069039796 -73.11327263489699 -1.4999943217403782
-95.41872714928917 -72.9650711668314 -1.543652773607661
-117.1609445156245 -73.01838465490027 -1.508666329942805
-116.59747354899663 -73.0057391401856 -1.5074500777359803
-96.38316900664148 -72.95038936790192 -1.5531441237027477
-117.77981890164644 -72.71243777861676 -1.513865054242832
-97.05889706602116 -72.52465060959003 -1.5595650507684824
-109.95992006840396 -71.47269157144385 -1.4446708689218752
-109.27403436914746 -71.63200499367682 -1.446872511453312
-107.10945349315449 -71.95265901872968 -1.4520626782856092
-107.02375951090578 -71.14340790952392 -1.4519506460487315
-101.48792017352493 -71.37541432114088 -1.4638968359139444
-97.14843853410453 -71.54007195411187 -1.4706323315601748
-97.0803438158024 -70.72365758398323 -1.472799944533808
-91.7941906541935 -71.45582653103119 -1.4857190722851261
-88.97449176288727 -71.51870441493858 -1.4914176003475914
-87.9125579145881 -70.81249798317297 -1.4902093705498307
-109.60232423081055 -71.51880055359219 -1.454193525292939
-108.18770720464167 -71.50215550683393 -1.4542281929185583
-107.10051376300412 -71.58550296392787 -1.4596490001214764
-106.64156789521766 -71.27572846072624 -1.464347102149721
-104.47719185160001 -70.72596586805793 -1.4678461804117835
-103.58930839154924 -71.44925977392867 -1.4695142291147414
-102.0598383068832 -71.49620201879279 -1.4699045742322643
-101.09329214980747 -71.47530573426691 -1.4734681754291994
-99.76789604698213 -71.51410646903538 -1.4768182370634741
-98.56256840968517 -71.58257126723302 -1.4789795490091995
-97.30676089532406 -71.47211680344249 -1.4807935378909551
-96.75745912070873 -71.22985855947721 -1.4858171725949811
-94.64395078303633 -71.02681858771936 -1.49056309314876
-93.60367945866473 -71.40188541725485 -1.4905176297788438
-92.02127013092533 -71.54951990767334 -1.4895836067071262
-91.06937242849365 -71.52718725050363 -1.4939543817551595
-90.27135150214369 -71.35224823676695 -1.4958336982086757
-110.77380540954886 -71.54740489551675 -1.4625058614801798
-106.33184110638248 -71.51305512711318 -1.4674799046052047
-105.36848726057502 -71.45937682696614 -1.469831976449244
-104.54616160857985 -71.8414937454272 -1.4716808865814006
-96.35753210402392 -71.45447719225263 -1.4892784125902978
-95.3697907956568 -71.3942549992824 -1.4914222701791133
-94.69041631524676 -72.02815420757199 -1.4938762932900642
-91.84156725039361 -71.39874987388065 -1.5032621097747276
-91.16925878591736 -71.35426983222125 -1.5045833557906112
-111.87042777077178 -71.49157024252717 -1.4702865661299545
-92.67198760769045 -71.23217520754167 -1.5117025441373264
-92.1318050346797 -71.35189163375782 -1.5138446321841197
-113.56188829267397 -71.54146884156877 -1.4792649386392234
-112.9360271987938 -71.48497759043498 -1.4792217583931384
-93.57206178890809 -71.26262126232912 -1.520646934551817
-93.06076894271021 -71.43519918619282 -1.5229888885543459
-114.52261554600754 -71.46818485943766 -1.4859995308115184
-113.9421790749158 -71.43934015868454 -1.4873481086429914
-94.31281743442095 -71.4489371736623 -1.5281711489187246
-94.10898877863507 -71.3152849210488 -1.531448762948457
-115.75990320175012 -71.35189186283625 -1.4949106084056984
-115.16454994494994 -71.57234417877167 -1.4959905970829768
-95.14231372371368 -71.19498043017836 -1.5398515116590699
-116.88283741960346 -71.46041482900424 -1.5034900410939478
-116.34900569584417 -71.29412478582299 -1.50379955681226
-96.02647269467784 -71.21093585682016 -1.5484881930095684
-117.79728144640119 -71.33227789125937 -1.5119981561097804
-116.92536678546989 -70.77538538762278 -1.507133428234146
-96.99724541899997 -71.3154277845364 -1.5574714467247286
-118.5135905218012 -70.88113336110118 -1.5164144614992134
-97.53133837088416 -70.78808304903674 -1.562722526550253
-110.6910052495255 -69.67725057958937 -1.4373392516352046
-110.01156550069432 -69.97558837263082 -1.4411706130269668
-109.04179459668593 -69.95887170528593 -1.4430029511162739
-106.83373637871942 -70.5094404494896 -1.4504639269203259
-101.46577252443467 -70.21708378903344 -1.4605055299208682
-96.8155685656593 -70.33883813162956 -1.4684461512229035
-96.87609480028878 -70.13421712143546 -1.470849691599614
-91.83312077611693 -70.36330416859218 -1.4832387994866845
-88.86029292424111 -69.77400684536731 -1.4870902912504884
-87.44778383299253 -69.64600574591546 -1.4889636728720974
-86.51563839884739 -69.1281871782976 -1.4885679045215974
-109.29634198096099 -69.84034772566804 -1.4493730636142605
-107.95155593336506 -69.88212550594334 -1.4493732414956368
-106.68620297599668 -70.25294734006633 -1.4556179246042809
-106.22612059450438 -70.22705430895616 -1.4614425038707113
-104.7714455155589 -70.06239766009246 -1.465065646382578
-103.40751084407964 -70.26854176369696 -1.4654764499729795
-101.60712499696203 -69.87451833555616 -1.4662975044285262
-100.7053306897795 -69.75066579878656 -1.4690237845106697
-99.5381579037144 -69.87886441114468 -1.4723961891600263
-98.33061554831464 -69.89401553303483 -1.474229545817907
-96.85989413937119 -70.2175894387328 -1.4771423608464922
-96.23129536752893 -70.19778641438936 -1.4835255831816856
-94.5645595190123 -70.21743045983057 -1.4876983447835619
-93.29885980241308 -70.25650839437169 -1.4865732874308968
-91.40036499928856 -69.79960586646331 -1.4853615155414697
-90.73721438432611 -69.84935243061082 -1.4890627104504022
-89.98037470334351 -69.82121011008465 -1.4915628380459447
-110.44056816402414 -69.82336260853089 -1.4576024270785677
-105.91625746724367 -70.48133060194763 -1.464431050177736
-105.33482232636734 -70.43615358386118 -1.4658232640980078
-95.88848359074352 -70.54296367802641 -1.4868397777423814
-95.20407069155661 -70.37954536004403 -1.4877278639799965
-91.48571588911028 -69.84103293350512 -1.498671401118189
-90.925849718286 -69.8412174887132 -1.500854222336843
-111.59839203091069 -69.87121860534522 -1.4660301078830749
-92.39573012803955 -69.61898366132719 -1.507774970008102
-91.8255620554296 -69.67544362573838 -1.5094987579811634
-113.28410123749697 -69.751176656199 -1.4751516224890866
-112.5631023460248 -69.76544285602138 -1.4739716525602478
-93.30772189645609 -69.61713878745525 -1.5167952960839979
-92.83108672822947 -69.71829799652502 -1.5192239270208319
-114.31259772891302 -69.80489304970024 -1.4824649563999284
-113.66743861453804 -69.88032877610512 -1.4834457736973408
-94.08099276817825 -69.83280445879345 -1.5246149020299025
-93.84443575099964 -69.53535887062883 -1.5271294601780214
-115.3986340464645 -69.71426361901781 -1.4900687494647484
-114.85023928648738 -69.75619793629372 -1.491606116616154
-94.79514256222352 -69.64248613280353 -1.5349014072634997
-116.62121104371776 -70.04461431451031 -1.4994860846780669
-116.05620003940905 -69.67946805894584 -1.4998602904629603
-95.78582017263213 -69.69862889107075 -1.544525278446183
-117.61961852188335 -69.815246221916 -1.5088268764559312
-116.8052710666838 -69.41457010012314 -1.5046862360143296
-96.74581104208309 -69.59452918126777 -1.5531057520145994
-118.61547406260908 -69.61532301577422 -1.5155698156842325
-97.53976623021065 -69.44657241780641 -1.5617324614876733
-119.28510196896795 -69.2266450122442 -1.5196978172041806
-98.07288504030718 -68.91132352469552 -1.566996860843402
-111.50724766214542 -67.85992594820618 -1.4296519212582837
-110.88949659267159 -68.25273883973806 -1.4334817040835126
-109.61755491149057 -68.17857135141765 -1.43730924134223
-108.70579988195882 -68.2766707716845 -1.438498273273167
-88.58260975268095 -68.04071052838623 -1.4828305586779185
-87.20897599831521 -68.29703532597173 -1.4864320274096428
-85.86406848321535 -67.96711382248913 -1.4867563418955196
-109.0198304284469 -68.25651037740552 -1.4452630970287872
-107.53506698569632 -68.24129140672352 -1.4449013041720316
-101.33508950754145 -68.27827732450531 -1.4623611697755543
-100.45434335587022 -68.20381901843135 -1.464733331433124
-99.27892478745983 -68.13458291711612 -1.4679602755914634
-97.96081492110058 -68.15335114265736 -1.469510120416385
-90.86881732439564 -67.89282455660775 -1.4804341679308248
-90.24028239880892 -68.10323275961659 -1.4850648386987966
-89.75403562097323 -68.03428143762343 -1.4875656774870296
-110.11585380322951 -68.13501432718272 -1.4532609154846603
-91.25837714849081 -68.05363469288412 -1.4952738548465494
-90.66733246581039 -68.08432607197304 -1.4965715750946895
-111.27765550245087 -68.15080949715923 -1.4617049553266186
-92.15114258410195 -68.1101927594598 -1.5043642162553392
-91.51835631630138 -68.15669252767796 -1.5050737911396757
-113.03537077190013 -68.28061568677478 -1.4715386565105675
-112.29277417040595 -68.18764964902721 -1.469825768530499
-92.98133614340867 -68.03693509983226 -1.512455179091586
-92.37936984994343 -68.03995802646642 -1.5133942203338462
-113.96648350361687 -68.2066705780189 -1.4781326717841523
-113.47392582202372 -68.09085875654895 -1.4797236132527378
-93.65443504106307 -68.05717479454268 -1.5190943977844829
-93.54087234064417 -67.97667380031795 -1.5229612034287343
-115.12005780566302 -68.17301118249227 -1.4862369686262658
-114.57615113602672 -68.0973385868076 -1.487531002711962
-94.4585021254927 -67.94271467880529 -1.5306939596418783
-115.88416002101077 -68.0726774868547 -1.4915424071488896
-115.65436171628905 -67.9407013613548 -1.494951324126449
-95.6170171170917 -68.0107805668381 -1.5393652153478101
-117.38574785287224 -68.03577891968973 -1.5061089050515242
-116.63462983962445 -67.72667809066186 -1.50154487457173
-96.562297506126 -67.95000150646527 -1.5488871759544334
-118.4066749721883 -68.05606787622094 -1.5125704787358007
-97.31249930709687 -67.92196536963105 -1.5580006343167145
-119.33338854666918 -67.88376561206671 -1.5185289844739494
-98.08446018508364 -67.79472631943995 -1.565786319434136
-120.05786406644064 -67.25179186613747 -1.522570556876902
-98.50862320572183 -67.19711537397089 -1.569787180736091
-112.23630924434991 -66.09599865697172 -1.4222422291815442
-111.70202905557011 -66.66559676981582 -1.4263902768640682
-110.5653408265409 -66.6681026946898 -1.4302425317828844
-109.449769439097 -66.62527457987306 -1.433063538546487
-108.43621630601544 -66.53849043865911 -1.4341130164333686
-88.36582755910248 -66.34938400503515 -1.478364805343792
-86.97877116011095 -66.40324086950277 -1.481633778115124
-85.64612472393156 -66.48669173105552 -1.4841457256551402
-84.52077801936268 -66.22915630914227 -1.4846740547122041
-108.61198825640483 -66.60351597616321 -1.4409558753360676
-107.33192236060451 -66.80103497515186 -1.4405734120299374
-100.95784004332388 -66.63422704814809 -1.4577031744404476
-100.0599024647178 -66.5599216630394 -1.4599389607536806
-98.7212296470394 -66.47023996796861 -1.4633846316870052
-97.69871121871205 -66.69917736860378 -1.4649913316407226
-90.51081506884087 -66.33537467810717 -1.475993896279315
-89.87018738669688 -66.51362003150253 -1.4808022777478809
-89.55653926269312 -66.45247195252779 -1.4840839365681286
-109.8384504503109 -66.56104631614004 -1.449157895562622
-90.88796826090982 -66.47512576775479 -1.490530919990728
-90.25863118181199 -66.26595556873154 -1.4907421143900161
-110.93683238643712 -66.63004237761047 -1.4574023113965653
-91.7707351577229 -66.36216171729579 -1.4995111793997686
-91.27511066293926 -66.40481336332033 -1.5009483408380304
-112.86705462698139 -66.58895120696764 -1.46838474126883
-112.01885951305003 -66.49897691132702 -1.4652899361453315
-92.67991491485583 -66.31444441238072 -1.5083883965092946
-92.1009989435037 -66.43257186416817 -1.5091035247923077
-113.7113326609951 -66.53468825887185 -1.4743460465743767
-113.07011076563688 -66.37853642334801 -1.4745348522263229
-93.29237496553546 -66.64793235188695 -1.5145967830761067
-93.41228980139815 -66.46095181293909 -1.5187032417752586
-114.68113460999861 -66.41027079483476 -1.4811191735289204
-114.24191129580933 -66.52246143091526 -1.4830763659553143
-94.22637067162229 -66.23727471815184 -1.526176378033512
-116.01487109020482 -66.16650931522915 -1.4903335442002745
-115.4597403364848 -66.36988752830936 -1.491515196039532
-95.14991734718446 -66.12174959301424 -1.535174001663571
-117.17515161601787 -66.41593194194985 -1.5013260447054069
-116.44262322744433 -66.39500379755668 -1.4985183659696208
-96.17315121702156 -66.28098751770642 -1.5451655022858028
-118.09670830434683 -66.47774443519606 -1.507897758217209
-96.9954196479757 -66.33080873478727 -1.5541231940510836
-119.28813380457099 -66.4238150813708 -1.5161680987351775
-97.80109677706689 -66.1587199034802 -1.5622540667230322
-120.11234783737801 -66.08638261221151 -1.5216534702838465
-98.59336096396508 -66.20293866724211 -1.5698870903525153
-98.62508857299134 -65.52450850833614 -1.5709806608321666
-112.43375293159573 -64.91194742916133 -1.4189239154815723
-111.53836566895367 -65.03054740768576 -1.4227279880740828
-110.20063749049946 -64.91220326723234 -1.425911736894367
-109.11798469796823 -64.83552264054651 -1.4282867222915951
-108.08906077045367 -64.94533951010038 -1.4304429922479815
-88.63971837889463 -64.61456303301654 -1.4732946949219692
-87.99245918719846 -64.79467373057444 -1.4741897929792198
-86.73723643020836 -64.79696160924414 -1.4773142248176119
-85.3649101752974 -64.71993696914376 -1.4797318685344305
-84.07010436662264 -64.88143892182467 -1.482253658064998
-82.97434035946544 -64.48952230292403 -1.4822294193525558
-108.29231482419574 -64.9773442429388 -1.4368151307126102
-106.94463749627334 -65.04372406386862 -1.435555563888689
-100.57287893017202 -64.91947091713003 -1.4524937116316545
-99.76139566762895 -64.88615698704422 -1.4555468280010466
-98.65608879097101 -64.90948792004204 -1.4593266693721167
-97.23150979115152 -64.89152745822162 -1.4600144869835765
-90.13096312535941 -64.75634018301321 -1.4715729182673216
-89.5346545942766 -64.79359005366405 -1.4763961337157805
-89.49460014085471 -65.0230824160432 -1.4818215577118337
-109.43829832674622 -64.84349159508625 -1.444400126258993
-90.55093624375269 -64.76771502183685 -1.486295571618636
-90.1508664795134 -64.66492315470094 -1.4878496844644575
-110.75508173898584 -64.96510615359438 -1.4537794899359844
-91.41135498252731 -64.80822783611748 -1.4954749060426076
-91.09134334844387 -64.83384207436029 -1.497055706843863
-112.75728467388801 -65.237936058232 -1.4660881909264436
-111.81935926636461 -64.90073891718707 -1.4614993820403277
-92.26582024529726 -64.74105391929804 -1.503382388277916
-91.92059657491507 -64.61913501126082 -1.5048270617653225
-113.31749162321583 -64.81773963439585 -1.4696534896639557
-112.75857505604408 -64.84429457805254 -1.4699079261301455
-92.97135009929708 -65.2527392565452 -1.5105608430722597
-92.98466395175156 -64.61571146944587 -1.513431199014147
-114.50085058453996 -64.8082125091859 -1.4780892074063294
-114.01893580882555 -64.97359316355829 -1.4793200741483898
-93.98050569105854 -64.73147507659115 -1.52307639358678
-115.64417261081282 -64.87003726361911 -1.4862788812885828
-115.21590923588053 -64.89069870750154 -1.487764559766805
-94.8172936419557 -64.63772565473587 -1.5314409367498492
-116.77194503013247 -64.7543929043218 -1.4953071089402254
-116.112279975373 -64.6826418162286 -1.4938872476747658
-95.70220008483443 -64.59315335266712 -1.5399636682961475
-117.79757533982303 -64.7869709597375 -1.5032746432517785
-96.63728651398131 -64.60965917941212 -1.5492424227583088
-118.95488241763984 -64.75018583446817 -1.511573599527536
-97.62965261713514 -64.63402716490626 -1.5582197282216466
-97.6934348664909 -64.22761711492466 -1.5618659339268073
-120.09392805654608 -64.7051975476108 -1.5198551901262292
-98.54192774959381 -64.50800041154777 -1.5662004648156702
-98.29010367021513 -64.71011886619775 -1.5675489407746543
-120.75696776360739 -64.58958458052805 -1.5241405080553225
-99.06573725973591 -64.61473943615859 -1.5722560629654818
-98.81950231728914 -64.45964954291425 -1.5720216064912023
-113.24859234763456 -63.32097255651831 -1.4118368171528228
-112.41990090516398 -63.46236279249541 -1.4154534675916752
-111.17849202099325 -63.32070298495458 -1.4185694313127255
-110.01877378964046 -63.38437420130431 -1.4215851422082042
-108.85124948012584 -63.400654321864884 -1.4244122156684098
-107.65590110401929 -63.24959455187365 -1.425812185961402
-88.44074123700099 -63.10570438492136 -1.4689117427030915
-87.71218990558 -63.09767235965705 -1.4694590736664659
-86.41049596674227 -63.31907017224725 -1.4734626858534154
-85.12703566413481 -63.081573931414276 -1.475314341043812
-83.92039613929217 -63.16039820954291 -1.4778915048988914
-82.48011339301246 -63.13341487699915 -1.479854451565419
-81.50707431405331 -62.71357131785529 -1.4798280660423224
-107.88666595020842 -63.28854377344628 -1.431901521008735
-106.75329015977016 -63.47060556397426 -1.4307824501215158
-100.01584144473968 -63.33060981383583 -1.4475340885648014
-99.44031236774515 -63.32117980846907 -1.4501316568920817
-98.12530481096613 -63.51276667366876 -1.4550316637812732
-96.86376681895311 -63.270959848860024 -1.454549954782437
-89.75985483709438 -63.366254325895646 -1.4677921400929674
-89.1832935165582 -63.17423566387142 -1.4723349985573513
-89.46240708130127 -63.768813065681535 -1.479786728530958
-109.22013164433953 -63.23739349144784 -1.440742772933694
-90.11824364155964 -63.02517940480422 -1.481865948578859
-89.96561721329056 -63.38654763958423 -1.484208664971038
-110.60795309314484 -63.843288844231125 -1.4513820973442013
-90.9788728265418 -63.89397447941171 -1.490568804157854
-91.47293323419812 -63.84814608785219 -1.4975883570142432
-111.98067397938816 -63.82258647778717 -1.4605918702423828
-92.33132169713728 -63.778277586205206 -1.5053776274270663
-113.1746062964442 -63.5132130528288 -1.4672456979491286
-112.69115203453518 -63.5259806576673 -1.4667222730929266
-92.92967963197353 -63.45607912185226 -1.5110922300164649
-114.20257880721638 -63.17498554298598 -1.4742704334492365
-113.70592213846324 -63.11954065815856 -1.474861964243015
-94.22534674478503 -63.282203488488285 -1.518717100900765
-93.7361211128412 -63.01765313164624 -1.5184480543009964
-115.33229084091583 -63.230189959389484 -1.482336510721954
-114.85219733761755 -63.14612306898861 -1.4826050393170997
-94.51238335711885 -62.98881837230391 -1.527128229469058
-116.43526817854581 -63.02818763760081 -1.4911351656976324
-115.72936119645227 -63.07397384176204 -1.4888189269391305
-95.44915772044888 -63.04460096617645 -1.5361625354172275
-117.44419156613087 -63.13132170663038 -1.4990734107969867
-96.40267024292987 -62.928493468022985 -1.5452898562495379
-118.66265705687088 -63.11736521416119 -1.5077258929498576
-97.26890028897299 -62.9745975963837 -1.5535876449314634
-97.43592338182708 -63.13270185135102 -1.558386072126514
-119.78323303399809 -63.01947800296131 -1.5155832061699068
-98.34948093710612 -62.966638764198414 -1.5626999493244758
-97.96680661642858 -62.90777024542218 -1.563251948777518
-114.04089443953187 -61.483465278866234 -1.4043125258976534
-113.46857210190694 -61.81592155391246 -1.4076586847046688
-112.08875696842779 -61.630312351368715 -1.4110917137943413
-111.03159151459684 -61.87232044198187 -1.4144244106114587
-109.62956754644384 -61.633057126448875 -1.4169971017931493
-108.47648807014022 -61.71355565988299 -1.419779458603548
-107.23757648586587 -61.649993908116876 -1.4219847554955622
-106.4497497583011 -61.276354436760286 -1.424200454370219
-88.51191341440148 -61.37492934374894 -1.463542370722386
-87.40290364731919 -61.431057717622636 -1.464790186625167
-86.13873357431146 -61.599460274631944 -1.4685958428042287
-84.79031866254593 -61.51639056582322 -1.4712135152409498
-83.53020028713229 -61.486199272127024 -1.4736532171553625
-82.33031827325416 -61.447457263421406 -1.4758472353174168
-80.89470391753325 -61.49778548293261 -1.4779268974737532
-79.94294673731932 -60.82150407370776 -1.477110829865345
-107.68359067067998 -61.6997882338874 -1.4283598430425801
-106.53787161700393 -61.949407142504654 -1.4262296271171409
-99.06243048002486 -62.321039613928725 -1.445774782071131
-97.1827665197136 -62.348493383181115 -1.4501152090026763
-97.06646231493689 -62.3569258932726 -1.4503981715605962
-88.84875555223299 -61.47253250206499 -1.468778609252756
-108.92551640469125 -61.650846225267266 -1.4369851376240923
-89.7110378821248 -61.486053308780825 -1.477638416899015
-89.92179169501013 -61.79917372846943 -1.4816557832858868
-114.00277111070861 -62.1650639137225 -1.4722080789692513
-113.54752754066791 -62.07255327339142 -1.4704551875599339
-93.30979224519899 -62.129958618719066 -1.5151120676487255
-115.04784064961754 -61.970137366144534 -1.4796424264855221
-114.90520521103551 -62.02724646038957 -1.4811992225023902
-94.4637048435672 -61.96544310702437 -1.52629633854803
-116.1290303470437 -61.67223576762967 -1.4876805139081601
-115.43400435001259 -61.79958051433162 -1.4846951036655116
-95.26311995954352 -61.643930995912534 -1.532965616866071
-117.19600905459653 -61.41673996630028 -1.4949723551764877
-96.05637082665584 -61.193636329281105 -1.5405046877344537
-118.26995198958625 -61.42425096388837 -1.5029414287412866
-96.88086692454746 -61.25177634381978 -1.5491032859095015
-96.9029119767897 -61.2586394673308 -1.5518208040825883
-119.47025564286596 -61.54061930367243 -1.5111779786145747
