# .PCD v0.7 - Point Cloud Data file format
VERSION 0.7
FIELDS x y z
SIZE 4 4 4
TYPE F F F
COUNT 1 1 1
WIDTH 812
HEIGHT 1
VIEWPOINT 0 0 0 1 0 0 0
POINTS 812
DATA ascii
0.36934333842205436 -42.63821617650352 -0.021550922992510924
1.3812694033731254 -42.43427143744387 -0.017370764968474905
3.2710653777245002 -40.20600878494393 0.01413497301107035
2.362778554674916 -41.8765181611372 -0.011817244020206459
3.0452190433439594 -41.52548076654527 -0.005473889095853534
3.9773915586784394 -40.84084646902642 0.005022496314172111
4.075432920357319 -40.12098692577992 0.010603415915699532
-3.433617838057281 -41.31508807616157 -0.02453033943802045
-0.44473800852477896 -38.48980225976671 0.01954010161843761
-0.4347584571867724 -37.88781389605987 0.02018014345561925
-2.397070210479332 -41.43534230476335 -0.024891912410165806
0.15490677668465214 -38.47786627986173 0.019652793617207575
0.8628117711419778 -38.2259655660819 0.020174598554151713
-0.8768083035460597 -41.4728385826002 -0.024629227393978607
2.3691166891529747 -38.43186212937534 0.019584466602422197
1.8572787054794522 -38.23591627017487 0.02019661155749432
0.5557947782951134 -41.15791722539605 -0.021760550428522405
1.4267520248605055 -40.888047852148155 -0.01853397644277232
3.451917015026267 -38.67703157525495 0.014852867579392852
2.3973906400780707 -40.573879937769 -0.013062477425085817
3.3787669123297595 -39.98296467634869 -0.004806146532482658
4.118824950090738 -39.5311794274163 0.004439479620475001
3.9437396848980892 -38.994676591605725 0.010602180587115343
-3.449483160753741 -39.92441589613347 -0.025813361869335583
-0.29379826709172874 -36.748385504019645 0.02125985014480811
-2.491149969279581 -39.949868106984134 -0.025140460848464708
0.024793559254731035 -37.37156656540927 0.01987010429882781
0.6779765818266285 -36.65696127873387 0.02044341110182408
-0.9919996821423224 -39.87131977182102 -0.025116393870897393
2.695632601360347 -37.07759542869674 0.019751699210706526
2.0507886899443175 -36.69371724712199 0.02050731911382329
0.507181285029946 -39.682106038942536 -0.02252742087435977
1.5433721162616694 -39.57961829002268 -0.01886673983110779
3.438568801829799 -37.06981772987144 0.016769493148846168
2.236794911278304 -39.473594821089414 -0.015156695787900831
3.0965113636490234 -39.52286737984773 -0.009305912856614987
4.160546661726331 -38.15559797063413 0.007884322788035905
3.9696093456428203 -37.37936338435452 0.01180807014000379
-3.633180334884978 -38.456965689119905 -0.027726740335643867
-0.19064327482325516 -35.233592899844425 0.023002363737742747
-2.4949750176742778 -38.44338212355222 -0.025639380297896024
0.6585420891819244 -35.172170327067626 0.021146600682742454
-1.0802204550379535 -38.52241933066549 -0.02539670726999067
2.2255546227880134 -35.271015289837045 0.02076303770391232
0.6613431381791364 -38.23862150176021 -0.02261766629724647
3.4624774481683662 -35.481020280801296 0.01801120071018534
2.9546376356548194 -34.84512685438503 0.020054609565519
1.822569426789446 -37.891030461047556 -0.018822419322805393
4.075735246270607 -35.86493283990202 0.014074038743503908
-3.911655199096166 -36.98062872585288 -0.030518603822098724
-3.685991687644341 -37.542553670296634 -0.02898333462749956
0.033299684702230437 -33.74896132966307 0.024761670339811317
-2.5055385082872026 -37.07419044029473 -0.02627803671006906
0.7807911049714423 -33.62449090640816 0.022308473254481005
-1.0754858485696286 -36.91292355116066 -0.02555722474270923
2.1761315071026894 -33.69573633019033 0.02114919825209917
0.7313070138452504 -36.78751593607848 -0.022933902726872155
3.6071442153446185 -34.05847858499169 0.018406045303101182
2.9631444054998743 -33.78728067872147 0.020385516263543686
1.7311136162680272 -36.40004075199681 -0.020382814788927027
1.9256712888456875 -36.36614614806815 -0.01962817178373499
4.212569340983039 -34.24606709583421 0.015582368301399495
-3.8900899019247652 -35.87071402591786 -0.03197386617495497
0.23713656572188668 -31.674650449322346 0.028038783800192042
-3.431782321946666 -35.48324438130558 -0.03076423426381367
-2.531157990352751 -35.6334814662204 -0.02737254815221369
0.8764745873438999 -31.984282659392136 0.02376076280503089
-1.104821321119064 -35.425147687186474 -0.025753447180633958
0.4455829491342552 -33.99187782523832 -0.014598431375834156
0.7754797550892802 -33.18314148733097 -0.0024029504680587745
1.5995209157774992 -32.60734993138862 0.0058446744287822035
2.162942659481576 -32.213891365005644 0.011816794633342176
2.34323670095504 -32.30900345664282 0.02138397385226236
0.6236397074742408 -35.20127299672207 -0.023715365205215496
1.3633641487337658 -33.92667765543514 -0.013650147375904968
2.018162480602968 -33.2736595536432 -0.004025031074066468
2.813767183371955 -32.6282335930242 0.005662413631232227
3.4433697524189704 -32.3242734811834 0.015146414732075711
3.1832872771788656 -32.19502525983999 0.020449314800336727
1.862137323310504 -35.062190236046604 -0.020757525186683178
2.6533754575482 -33.92794072609247 -0.013900482380538813
3.5423188931177125 -33.74544800481042 -0.0036158059282623235
4.21630749202837 -33.21254668218812 0.004937777787204077
4.255658766105822 -32.366278805019206 0.0134185147098017
4.388984676787559 -33.49926595507924 -0.002998700687745655
4.964139779048666 -32.97846317297529 0.005108827622336814
-4.073412718507905 -34.434515643360946 -0.03481525365069049
0.4221571901359704 -30.632723052030165 0.029517524525796864
0.4372337397299426 -29.82446870547509 0.031223295324103773
-3.28460488669566 -33.92857072898055 -0.03217775574557786
-2.2961976084180113 -34.01673864731815 -0.027723828630858198
1.0502307115064589 -30.517488652375814 0.025242626406758947
0.593354372520962 -29.953529229349765 0.030111825339542635
-1.0296929842892881 -33.966521651190014 -0.02595484261015867
0.32994076518030613 -33.67478137414246 -0.015130845478974237
0.6649820181624694 -33.05912075921463 -0.00196978839558165
1.8713369120798307 -32.13425596201421 0.008143274336705912
2.1296060545978195 -31.748825264274476 0.012641927514164387
2.259975487501739 -30.682454445843863 0.021885605387800447
0.5121079966366897 -33.88921991371235 -0.02423288059829977
1.139934300993003 -33.64496027608142 -0.015772253500490295
1.9937715743954585 -33.243817077282586 -0.00523430870693612
2.7453820938954334 -32.45595269415901 0.005506044477851005
3.2779325169219975 -31.514154676110557 0.013763135468112255
3.3140987846257826 -30.789658612300357 0.020715294395687728
1.807572481199622 -33.95581775343626 -0.02143716452300734
2.7122419230959776 -33.66100034081761 -0.013608892452582176
3.304117896824235 -33.24130077791774 -0.005961229722195766
4.231616651825831 -32.315082674166476 0.0055482264376002476
4.369782144665162 -31.496271511504652 0.014066860468964626
4.496778604664535 -33.00777509173 -0.001980895410781848
5.099121740243342 -32.11101682387303 0.005994121686981586
-4.265146862395097 -33.27171555741032 -0.03746187904278033
0.6137760108766894 -28.403238874277264 0.03373195395964128
-3.3412927819569616 -33.00163917502468 -0.033827158048934894
-2.158710016709646 -32.694265518310914 -0.02826166702738824
1.245289893377033 -29.109449296155514 0.026680836024754198
0.9272694949063853 -28.483631332500714 0.031521116938915086
-1.0544606076857659 -32.59423599758637 -0.02617201601481204
2.255354468083638 -29.24585891524729 0.022312955977266145
0.5431790552028657 -32.36678030511268 -0.024484441047442154
4.142882926201189 -29.42514946028017 0.019536742974092264
3.41778040295344 -29.276698390554202 0.02099117995985022
1.7449646491662318 -32.239481716465775 -0.02221901703930834
4.518109418241895 -29.483171925333817 0.01835704696744507
-4.490565246405775 -31.747282853240495 -0.04086695855551885
-4.347934774454168 -32.40405091296537 -0.0392165323309516
0.8283610881968184 -26.79473295665963 0.03652238254617832
-4.254183705556179 -31.507970997036807 -0.040328076614561136
-3.181262326707766 -31.558989038894772 -0.034913937491491284
-2.110492694615923 -31.249073582796065 -0.029412752471971088
1.577004361648 -27.3969387621755 0.02741503053986333
1.2457428409440636 -26.86819552715273 0.03313494949991943
-1.0068385118322265 -31.035339346548444 -0.026462272475362657
2.3744593547047597 -27.68169924179289 0.022751997529753324
0.5112710016151072 -30.945551685307066 -0.024753815467415927
4.260304086891217 -28.243847018558018 0.019785071634453026
3.603720750809914 -27.802081485011293 0.021112543532110246
1.7932902167848686 -30.66916972933763 -0.02253455750369419
4.681033312444877 -28.00212327995624 0.018474479537750322
-4.564278718745221 -30.68914203845578 -0.04289834090478421
1.045066676410755 -25.432562894821952 0.03883886419510418
1.1312212079984367 -24.55952910502829 0.04049446097351148
-4.077404401592568 -30.51249607440012 -0.040951798917417674
-2.985148904276469 -30.20650770785706 -0.03552574989825329
1.81583963880629 -25.91246497389411 0.02838379012618094
1.5013558054453664 -25.301515738015173 0.03497260907961913
-2.068263894694995 -29.3347331937117 -0.031085474063834218
-1.137570948776581 -29.573920749517697 -0.02707908191400294
2.3875261105984187 -26.083039669893928 0.023786562084076382
0.4941994464499797 -29.430446240214845 -0.024931690912946437
3.6647636545664133 -26.250175749898638 0.021385536084854006
2.0158226869445994 -29.16745944657049 -0.022185013934778088
4.7934610727963465 -26.404706568082183 0.018699769076264718
4.412599843899246 -26.315654619829186 0.02010952207845728
-4.740188669580078 -29.54274225630675 -0.04547052429060234
1.27280077175782 -23.2943319789653 0.04282846365107574
-4.072783686444035 -29.16718525902027 -0.04272476534529053
-2.889320092113188 -28.62420941313076 -0.03661660138162825
2.0112021452743654 -24.430990943518665 0.029416360714648707
1.798592531409343 -23.746368976123854 0.03547288163595903
1.5227788858116653 -23.1294694391955 0.04118394457012181
-2.0181539467307474 -28.296198283028836 -0.03157795537662941
-1.1132734076768789 -28.049591457505567 -0.027390971364902084
2.402911436252489 -24.52981906675668 0.024843499652101645
0.48652260465063213 -27.983924166760033 -0.02506693033761831
3.68893251922643 -24.739636065995732 0.02169076965030904
1.9292321247251858 -27.712122073501206 -0.022586800367347736
4.95423325384781 -24.948488792677765 0.01827876664305426
4.510890134703301 -24.659643471090778 0.020315773599498484
-5.065820428097568 -27.484612424383876 -0.05021236098573886
-4.976282627365423 -28.130282190866108 -0.048726312767693784
1.5114127804116426 -21.48831888183659 0.046009071187794036
-3.99317518672097 -27.537659857063915 -0.04413384184880114
-2.824627142918807 -27.240727004996153 -0.03711072779508203
2.0072009894444465 -22.136101039372 0.03609002717855476
1.7405056354859425 -21.729863347807665 0.042821675194564056
-1.9615737359864194 -26.723825304379513 -0.03206089584496153
-0.9180051335215652 -26.52886953083436 -0.027136066803423037
2.457829615982713 -22.974118294615263 0.02510154420343965
2.1687477091704666 -22.572421738979184 0.03044744219308311
0.5629919939345802 -26.32049655787696 -0.02498997182132416
3.7962153114875297 -23.2236000260581 0.02170644520837467
1.9840213024317594 -26.22325275164387 -0.022357406797086633
2.7998227995978335 -25.926072472172272 -0.01939006782448362
5.013198479701314 -23.441449672408183 0.017971672197294706
4.534360195446176 -23.21874300396169 0.020322423179301784
-5.168337093010754 -26.75366238559284 -0.05172630422921873
1.7230233851173222 -19.94457056042866 0.0487127927914891
1.7421458887600645 -19.262335380700826 0.05025993962338778
-4.853437037179292 -26.21146146621578 -0.050955315371979684
-3.9875876515741044 -26.404518155904547 -0.045234930201355786
-2.7684460635459587 -25.765807108462333 -0.03765829723627724
2.162178751402238 -20.71806563542186 0.03631316776935409
1.9906751282550168 -20.08408874816159 0.04410160674004604
-1.968181981124539 -25.368079701012668 -0.03278421725490398
-0.8421580081930427 -24.941257457698125 -0.027308951270004954
2.517627565720588 -21.43939351261911 0.025596591765632507
2.264530181144761 -21.157090867560072 0.031359209798431785
0.6371700424582936 -24.95497921813982 -0.024833890216544613
3.8361665921918067 -21.59681444388616 0.021739686734484207
2.085719240949715 -24.749377668512675 -0.021942482218744168
2.9137295516091983 -24.50426644625917 -0.018846844228388216
5.038683724846248 -21.999983609532542 0.017969931776765362
4.57937428126583 -21.777115856567978 0.020234768757008685
-5.3443745808926035 -25.550354817032375 -0.054323182632131074
1.8961260060528493 -18.08216341124247 0.05225497731898167
-4.8051556773226665 -25.285533611997103 -0.051721029657385766
-3.649602877120701 -24.767678782474373 -0.04445838666332614
-2.736479092201795 -24.450363752581538 -0.03816217263007795
2.3032218107969933 -19.19901959923292 0.0367904223357651
2.19781227673355 -18.653515203752296 0.04485069833769757
2.0467798353426714 -18.377829803356885 0.05030776436632155
-2.00525221949812 -24.124742980077276 -0.033571378633330956
-0.8543936679250252 -23.56283613019543 -0.027422399674375507
2.6042340899652574 -19.940697702302664 0.02604212833734614
2.3746392627639166 -19.508567929853218 0.031916919328680356
0.5892107406923683 -23.44932217091775 -0.02478007665468921
3.782398090648683 -20.33483125054748 0.02186735836889833
2.05865376177188 -23.261469554790796 -0.02195203965297747
2.95554889917808 -22.905016183601187 -0.01865164069100988
5.142529012745727 -20.493096978009625 0.017132461320452125
4.522933982912794 -20.576434570917264 0.02033108140867875
-5.576997466763301 -24.076165181118043 -0.057528900126229306
2.1304912426328593 -16.452411416965745 0.054868848895792924
-4.88914752453849 -23.75108397491553 -0.05393083914916205
-3.5443806452780127 -23.341305933092755 -0.0450039970903204
-2.7749150126371123 -23.16640562036052 -0.039329605027953435
2.4598765899340576 -17.64715604478645 0.03806679590857108
2.431444012263844 -17.17870397154971 0.044444998899368954
2.293543911842809 -16.526987638546387 0.05246860786958533
-2.0960150941988096 -22.60437462229304 -0.03502517310589258
-0.8955410027943107 -22.01933813840224 -0.027752304131226393
2.6731336875607665 -18.36106509502648 0.02628062088131222
2.4685855908624625 -17.983346279989206 0.033435584914099696
0.4574796402641752 -21.845109745184775 -0.024725714121572734
3.739199659459749 -18.805388872870047 0.02183652492212379
1.8813144778937207 -21.73970050033415 -0.022170733101267482
2.990646051620138 -21.434829386714842 -0.018320769113271067
5.110800823429779 -19.039531424370487 0.017091033895600162
4.517147916218267 -19.14797806213672 0.02019445798924919
3.989211249479607 -21.166150406422243 -0.014581148116921842
6.513235915920139 -18.891043247955867 0.008729062185192333
5.430090166483138 -18.99340834961722 0.013328879806968763
5.291827015512497 -20.557778899613098 -0.010661018216058396
6.158527466601543 -20.194258832255954 -0.004501490599020134
6.645347050616539 -19.622889549581135 0.0042149534084789915
-5.792114901716225 -22.5209651185573 -0.06073183364390372
-5.686820240633802 -23.246547111916136 -0.05918596540135184
2.3339786839577217 -14.761900870829802 0.057680753458837275
-5.58588433811629 -22.274475880573696 -0.060011478701413476
-4.866498513556182 -22.488030015453365 -0.055081682540608023
-3.4692468237651277 -21.894683344841987 -0.045627856524785376
-2.775780488503563 -20.769927514735198 -0.03991036373864247
2.571096483513604 -15.80697862822286 0.038846490387347304
2.603563854470472 -15.768621557812885 0.044427787487685486
2.522207167054836 -14.944985657496659 0.053496705428638394
-2.7385365695180632 -21.28417884604773 -0.040422188598856074
-2.064064101462711 -21.16558114218205 -0.03536233553234482
-0.7508621450637663 -20.563174156826545 -0.02705382954205137
2.686582281637666 -16.855770307787107 0.026002880436648067
2.5895330397367684 -16.42619772828099 0.03376070246635564
0.6209080733770362 -20.422604430368608 -0.024157822525188395
3.70168222524974 -17.24962242700629 0.02166463446485153
1.9571950990878444 -20.129170905622043 -0.021618761560050413
2.952200137771709 -20.071018215253574 -0.018249029509679156
4.993329022325076 -17.545227714185394 0.01749513646776708
4.39893311522229 -17.044539986579267 0.020061289372987675
4.385706427416099 -19.376979172831064 -0.013127650609802278
5.290956770146626 -18.74001764230271 -0.009434673321817955
6.407716319776588 -17.896031419196632 0.008420207288762678
5.785475318862044 -17.36722797964962 0.011707805300197724
6.028638198926464 -19.21035280475835 -0.004837723992757168
6.541877349930168 -18.57381646936921 0.0033835576858373658
-5.836538987307278 -21.503222294425974 -0.0623330239727882
2.475478127070561 -13.580572895554777 0.05961111715280161
2.5188248045804507 -12.878510711547886 0.06093344997442418
-5.5758378925912035 -21.34626384309011 -0.06098206599157973
-4.631639994718691 -20.9755490332972 -0.05474193997502972
-3.5145812628740143 -20.322337277365364 -0.04487973696851017
-2.710844106486107 -19.786302882336635 -0.037474745976909314
2.2974115134440933 -14.857490513199835 0.036289459059273665
2.627592947353602 -14.024554600717295 0.0453037219964215
2.681713957564055 -13.572071994270896 0.05495205305722273
2.667609819861034 -12.598999922945119 0.060275205879733944
-2.7674096532316597 -19.48344657020236 -0.04087430113318758
-2.1076688278363727 -19.536396104220053 -0.033765746975695884
-0.9037626176146933 -19.209645010982204 -0.027074901937314662
2.5509926935522294 -15.461547463958054 0.025866536027210486
2.4669632003570143 -14.754315402192269 0.03323509996814285
0.7495955937847341 -18.955676377216392 -0.02362267694241709
4.316655582244886 -15.590872092730368 0.01992843094627885
3.706206220804167 -15.875625516097084 0.02146419606003337
1.9761730431945805 -18.75735554282617 -0.021248784952833954
2.8871515657441265 -18.437391651066935 -0.01799250098110342
4.93798397917577 -16.1741296942176 0.017358494065069358
4.3355800721808855 -18.052838052272186 -0.012897213991466953
5.270675011851029 -17.574667962611457 -0.008743644347957364
6.261624405430266 -16.639585589347853 0.007865325911153107
5.728623161859444 -16.46068420879685 0.011620299033998428
5.969941924169064 -17.522930859718894 -0.003973617767733417
6.40055682924387 -17.16768116902751 0.002616095960313558
-6.074568892429945 -20.241418533008414 -0.06494674339310118
2.7350709305662058 -11.494897759419686 0.06262671660464157
-5.586860271485925 -19.95573490685746 -0.06240475142564387
-4.574893544892103 -19.518104606089032 -0.05510281640739655
-3.442695224739005 -18.824431527903688 -0.04518574341158366
-2.8066952225594823 -18.197284209125147 -0.03875543046603799
2.362498086002313 -13.074863376888938 0.03708228155510039
2.6617284786522872 -12.647135159314526 0.044906847586679684
2.8579172381847124 -11.849222128914121 0.05598733657533221
2.8487947761639223 -11.097106293561655 0.061827466472629676
-2.729973508109691 -18.488192073735252 -0.04064603841895515
-2.0427653773791272 -18.11171032041301 -0.03412769239852794
-0.8404220688928519 -17.418227802546756 -0.026456288447533217
2.580463293353827 -14.001288807839165 0.025456377593037944
2.4840544617448503 -13.424943107181893 0.0330240135761295
0.5493082770577977 -17.32941399768954 -0.023735520419074046
4.250124673247073 -14.40123667426348 0.01974107759550283
3.661144193439693 -14.263081286182722 0.021427959588908963
1.872045835924908 -17.19688777174099 -0.02098850240284182
2.896481949913415 -16.98325200155287 -0.017324344391943698
4.941990832247422 -14.576317071017545 0.016223666576289923
4.136181701781723 -16.574909814538096 -0.01280094442067432
5.297883082132468 -16.209231329493164 -0.007513016121682305
6.112047040863076 -15.198995383041497 0.006204858757734003
5.619553554222289 -14.987692028989128 0.011348737598880844
5.953794315774547 -15.977102922390003 -0.0026082773913890006
6.18154772724902 -15.584268429085318 0.001196610470046627
-6.18934688358794 -18.73980660944228 -0.06728700087790493
2.8489690565923613 -9.891755238009196 0.06536590019171919
-5.461366346414007 -18.58825249656477 -0.06259569882837202
-4.43113237230697 -18.034577671634924 -0.05449218982795907
-3.569223900462732 -17.57036194268807 -0.047331105820281605
2.3604159304854138 -11.60450448732082 0.03719816012849294
2.6960076808125377 -11.129018836430795 0.04483229314233545
2.9579694871666957 -10.378666472444632 0.0553954281345241
2.9917544651386008 -9.958528378784766 0.06227668814946806
-2.027347122006358 -16.500418930400134 -0.03515487488908831
-0.606953484982012 -16.00876944929645 -0.02542587283810059
2.5591872984661883 -12.635027049862964 0.025511112195575187
2.4618202654093713 -11.848262394223294 0.03345572612481768
0.6747385296719444 -15.790280701630799 -0.02300386685343927
4.160337486010431 -12.9233789913768 0.019505624159687436
3.586734395945123 -12.772122490915365 0.02121561014973348
1.840510398747441 -15.82289293356091 -0.020604116795973217
2.844252341406226 -15.428029544283275 -0.016783029834805757
4.879294518656687 -13.259829397047657 0.015465239177098033
4.141400564820157 -15.171137249939326 -0.012076222815691557
5.276231924457815 -14.617451048449587 -0.006104277057875581
5.937367072782727 -13.823736624890538 0.0047561237276038445
5.4545419382304345 -13.419374443611968 0.0110912841362375
5.959001073664525 -14.783739850881108 -0.0010572292085150791
6.086945290838512 -14.766953901692158 0.0011532962307597343
-6.42838879061382 -16.974320599968564 -0.0704320484557658
-6.32800118823101 -17.765306667752068 -0.06906450919769813
3.0601933365026666 -8.086018797831807 0.06780790871375925
-5.675636549577216 -17.16260492944723 -0.06520540629640022
-4.445374699515408 -16.540376230928615 -0.05515045627699095
-3.2344738728733464 -15.676758046390304 -0.04330318429218337
-2.676442620435392 -15.04391631215739 -0.03778600736654544
2.412046330063168 -10.161847091544864 0.03751468671397579
2.7136831186033175 -9.716847943116399 0.044611155725967834
3.0299130372094427 -8.886303455140613 0.0551710086946978
3.1371295212198618 -8.432177361593821 0.06354370372952939
-2.6645329695899482 -15.999659468476768 -0.04003305313264388
-2.1184946882975186 -15.07213545280023 -0.03408103828427956
-1.1959655654087975 -14.615175302544671 -0.027360851283295705
2.4588247884710026 -10.933997390786178 0.02558777470089441
2.5017712704889425 -10.54740222662678 0.03368133674984793
0.6355143534153793 -14.394064742384524 -0.02266938625405008
3.983722559273855 -11.404483325642257 0.019484713716187797
3.3808124780091937 -11.350793930397572 0.021354151737881674
1.6759862921402686 -14.072245107038482 -0.020320585300994534
2.741011592506826 -13.868948893277896 -0.016463186283218818
4.809019574649741 -11.751320091659926 0.014997624727702035
4.009363243392861 -13.55246993296192 -0.011619136278744389
5.293950906230343 -13.095943245456162 -0.004616131071982718
5.715808484209927 -12.358923276515139 0.005594459317050488
5.358392695260927 -12.24114340204463 0.01073925478549767
-6.522384872668718 -16.020975303618783 -0.07168825375897109
3.1361142263748985 -6.9763374463256875 0.06941712942220664
3.1897993418076465 -5.982010766747014 0.07074702815872301
-6.268610690236947 -16.121338938152228 -0.07037179570338777
-5.5917730460794735 -15.718912025773335 -0.06536285272069052
-4.385787542449853 -15.071739039505973 -0.05497586070192286
-3.3634050021323842 -14.380922246318159 -0.04607637272561051
2.8270027247509204 -8.276009882908511 0.04427177029887473
3.0715631074905096 -7.457130672399606 0.054781086269997774
3.2692422196937168 -6.809871147836378 0.0647876222811378
3.2992346762632057 -5.945029800625559 0.07003573613372188
-2.745176429138881 -14.381146374316614 -0.040879935621708094
-1.9914418250478887 -13.53567838360524 -0.03455805074201608
-0.9229296243938806 -13.039621523625657 -0.026324847722203636
2.616937404559437 -9.597979383208122 0.02408140628105964
2.637453372772904 -8.90419062525208 0.03428986228266131
2.7447210010927594 -8.333867104761131 0.04006409923167329
0.7795534680400418 -12.744686240544752 -0.021661347715052452
1.6377139395645643 -12.340545470239118 -0.019775487795261712
3.8601688879941776 -9.739796809837165 0.01925390722596484
3.277433431297114 -9.704387197224992 0.020680321244138506
1.6330162702493867 -13.233907197430678 -0.020107513541291026
2.7267336901535475 -12.288900294451222 -0.015807939731046362
4.733300319753669 -10.224182550758766 0.014426136270796293
3.9051241237523104 -12.19084808462931 -0.01132273767002461
4.995076354253279 -11.621642442410925 -0.005401577317750669
5.524180094285508 -10.901112766597882 0.006581491811511264
5.265824026519106 -10.627082487652062 0.010149836302876953
-6.604413949245791 -14.731950472404716 -0.07320206316524601
3.292894682422223 -4.911061046068534 0.07189166086918536
-6.305490680842809 -14.476701612952775 -0.07171357120996188
-5.493608111522381 -14.211589278315074 -0.06524312915800398
-4.307275364003748 -13.5110051145816 -0.05464257415054958
-3.374303051055679 -12.986100642092014 -0.04632295413742554
2.8881842654546594 -6.5818626508382625 0.045692461833058515
3.1198908050982235 -5.956587425228107 0.054722631831101556
3.376494831774247 -5.372264793442556 0.06598998188579513
3.434609714123975 -4.665275619616603 0.07080880077584845
-2.6973004848062807 -12.625992000826383 -0.04047914312570088
-2.1767866361124026 -12.197127111627838 -0.035712247155552615
-0.7180287121029909 -11.475779819517214 -0.024841358148753174
2.5069663477598647 -8.073487642682029 0.024478942844289107
2.6390564570861463 -7.49247098183349 0.03500959588522613
2.7640956669247307 -7.497259559387549 0.0402617189915728
0.7072588917268321 -11.16789496726638 -0.021309011167982648
1.5077269625573897 -10.99986793762612 -0.019597742182803166
3.8537459965336476 -8.407444976910597 0.018743096827093134
3.175344548479583 -8.352925380231326 0.020571994847734747
2.6551510702004646 -10.82627162436432 -0.015478886151139074
5.1257038585342505 -8.627571848321516 0.009738452611373048
4.703575762710302 -8.887270740925304 0.013475315861801944
3.8760185806129663 -10.7165827283442 -0.01076689108898004
4.81403536042545 -10.12117064692133 -0.00545458905651728
5.434361604783683 -9.39243972099418 0.0048942166376958135
-6.764272201873551 -13.226896700797091 -0.07520306664427469
3.4403224063473026 -3.200409285338935 0.07384008440909988
-6.309654989444432 -13.21835463876831 -0.07251620759307677
-5.413661590830172 -12.689099756318647 -0.06506202159851521
-4.324783418842302 -12.039472260702981 -0.055119143589338004
-3.395171582675819 -11.39128858692892 -0.046624181608672384
2.8997988856055867 -5.0767294173217055 0.04533798138690805
3.168539651328036 -4.465756082752904 0.05500482240184532
3.448407091172542 -3.8500074754212745 0.06557949843353027
3.5573118414325258 -3.1587553991457336 0.07198293035983859
-2.7380540338966544 -10.826712311035863 -0.04065721665413271
-2.0948020989011376 -10.620410847417913 -0.034885810598987294
-0.7055085245192702 -9.9239093648831 -0.024251102589659457
2.4975019643056875 -6.66969432592894 0.023661375418447254
2.624547439751561 -5.678379927333843 0.03529219536167897
2.7534196307023455 -4.836204956818166 0.04004654521100857
0.5697724477772288 -9.70036700020629 -0.02110283159195986
1.4598256877596274 -9.140179078906684 -0.018970131712757677
3.681927126072979 -6.764664941359879 0.018630672345626136
3.122212429108972 -6.934735637624966 0.02031691942893318
2.793143642913003 -9.150060047147246 -0.01419086361437427
3.814067553108796 -8.196430996509584 -0.009814101905102401
5.055455286926933 -7.549726946443578 0.009366887189526794
4.499186025575348 -7.318080685749612 0.014068433415900498
4.6499662364255405 -8.58433285612687 -0.0054206941041557285
5.271065438288237 -7.852812525609625 0.004919944389080459
-6.782407054834058 -12.03125453497475 -0.07601780200933952
3.5429628315964488 -1.8948541532778043 0.07473164304606776
-6.225362960675881 -11.664308015590588 -0.07236356804336247
-5.334490568027715 -11.174313572838855 -0.06448443002885658
-4.356852964615667 -10.588597917031016 -0.055475989019707704
-3.2530945444673343 -9.842131965859693 -0.04517941003171177
2.717771000272534 -3.3534788283584627 0.03971137277178037
2.8533656185887857 -3.737507837169975 0.044087314971248286
3.152121458252493 -2.894863194639387 0.05400013792351929
3.483785316544333 -2.2434081035177877 0.06508041395489127
3.6324682735290916 -1.7864846235374046 0.07210626696199375
-2.7558160965776137 -9.297362917494919 -0.04055588909823923
-2.18068733966455 -9.136440259703704 -0.035178972037739044
-0.7618827196764508 -8.342424399618038 -0.024291523051807075
2.3972676053317974 -5.079678787157683 0.024526714971910377
2.559029469175284 -4.315755031893085 0.03432364594482951
0.41968124318257427 -8.358723865563986 -0.02097252398073091
1.4449609027571408 -7.948054601074955 -0.018503055051182743
3.6239119550687167 -5.496934894085552 0.018299240969189865
2.9750709471712544 -5.370612708477049 0.020234081971002713
2.7144376998750386 -7.666880807686059 -0.013855642040338602
3.791363301765731 -7.182895026627894 -0.009252992389551856
4.935706796143401 -6.2689443990663 0.009105585710684302
4.51050230516359 -5.8610531070170895 0.012713797963797631
4.625601151319336 -7.175640014603406 -0.004427496195243487
5.125581827726962 -6.442082548002972 0.004100346061174511
-6.8378772740772895 -10.922073703196594 -0.07678650134826256
3.5872944913041955 0.05594351569251543 0.0762821825079779
-6.328232061771152 -10.249438179743567 -0.07348055947841868
-5.319727231261087 -9.696642385800384 -0.06433049445683667
-4.256355955857374 -8.920657849031825 -0.05449067248657877
-3.2769203494024284 -8.305901199367954 -0.045094279478149334
2.694197515820053 -2.648282495221181 0.03960641256396799
2.8445536516253065 -2.1965042692649295 0.04460564453207476
3.1670133579626354 -1.430247307383711 0.05448848950603003
3.483386840350115 -0.8845243174612003 0.06445664354602262
3.712209473998074 -0.11085138679512951 0.07322807749560596
-2.762694406941559 -8.271607013904536 -0.04034634539327851
-2.2886561463376043 -7.697512506554375 -0.035666192467228956
-0.9034012827225504 -6.873561363230494 -0.02448712648420231
2.3980817056585817 -3.6219248817862724 0.023891465533970657
2.5232891761789196 -2.8019252759040056 0.034783692512418314
0.43099475751414773 -6.755410477841857 -0.0204566554381302
1.2254459227824976 -6.4977870053714435 -0.01849499547408378
3.515116186729718 -3.946605287814445 0.017935081509661614
2.9588446602904486 -4.591164073463089 0.020042670739802468
2.664072834386014 -6.223714112769562 -0.013404081452306024
3.744551702415574 -5.722975476442669 -0.008488494300153077
4.826414377007783 -4.816961216701033 0.007899624963023823
4.401305627497459 -4.316096224628905 0.012414785507138464
4.4375137549575685 -5.3894542530175515 -0.0038799584053562184
4.922528660844453 -5.09177769617027 0.003099967847282959
-7.506579671820031 -9.151108548773427 -0.08310184499107173
-7.102973558992676 -9.467059267320288 -0.07891809081530353
3.7185335027452178 1.2171874564451013 0.07839033921135373
3.9366884898646215 2.1672248816081434 0.08330382503239835
-6.985106560099197 -8.693127029678841 -0.08037773407023684
-6.385688477234602 -8.78561138849659 -0.07422349492028177
-5.327886512737817 -8.089563477205555 -0.06438706692677312
-4.358642153541747 -7.462188818097374 -0.05529126092803096
-3.337754550537535 -6.960507458328207 -0.045364970876027394
-2.7589065377649393 -6.459508938586536 -0.039753029910035466
2.609221693448216 -0.9907410877560316 0.038569548059722424
2.8403969421850443 -0.6521686961547193 0.045379427097033805
3.1525833123185087 -0.014546054280799137 0.054374971090783035
3.520929770996994 0.6470139816454652 0.06525915211528882
3.8015063683996306 1.566142502229587 0.07462271403427294
4.048323538439186 2.404405104321171 0.08067399391065955
-2.157812978282082 -6.06548847884905 -0.0338788509075965
-0.9571462857489946 -5.395391001334161 -0.024376305913189546
2.7928054373236546 -2.204800756192827 0.019840281039624753
2.2644534042172597 -2.037082463543788 0.024565120085112527
2.4615981953099313 -1.4875166483696614 0.03414879811630139
0.28747924983240836 -5.191554511688921 -0.02025868489037159
1.2081952573954513 -4.922280483414716 -0.017885281921496195
3.461175600307237 -2.543556868068082 0.01751010209188189
2.614368247672244 -4.650515796428311 -0.012896215901080268
3.7805102496452063 -4.233683795747468 -0.007094360706740937
4.654431780261346 -3.2189709351762676 0.0067016171729300765
4.294975295078168 -3.0647984790316176 0.012310281140030249
4.468456492952624 -4.0609809544969195 -0.001989952555122552
4.725239602449199 -3.9885955293792468 0.0018988811014697086
-8.360460816839595 -8.386468737987187 -0.09351750442225658
-7.77617992386233 -8.501748623843705 -0.08772691227291828
4.3310897383950095 3.6135066028081364 0.08765325769741088
4.583947573735303 4.4492172505618335 0.09414554458335427
-7.117325353555986 -7.736017907662303 -0.08265830539500929
-6.4166292344174725 -7.406751454440148 -0.07470681433217115
-5.414293763577221 -6.7074906719510965 -0.0652174343465346
-4.39952484568095 -6.0242503586989695 -0.05547730235121402
-3.3756876570510697 -5.36115067631894 -0.04531937734166969
-2.6802032359862475 -4.725981838734928 -0.03846780539004626
2.5495544570923783 0.21061784698282038 0.037869040695272464
2.803919439104467 0.8368893387805394 0.04523069465968401
3.118171674919071 1.4469613461074529 0.053904854655048115
3.5066590164314997 2.1502030935830665 0.06464415066449965
3.869697637830112 2.9205104884321385 0.07529822065268424
4.198498341922313 3.5039645837700806 0.08260554162850049
-2.143746487131833 -4.4393213240998755 -0.0332446313692976
-1.0172029914821055 -3.8769594210639244 -0.024136965351353377
0.11675044695735504 -3.192415452005057 -0.0199797894679737
2.713494504968609 -0.7372034401420826 0.019614400606993737
2.209032770204046 -0.6325771370924997 0.024284519669792837
2.3677229805535673 0.0774606008239136 0.03279313863268773
1.1205252608083767 -3.3473917275200824 -0.017449909372212146
3.426680629602068 -1.0458089122296919 0.016815083641081058
2.5812840994578243 -3.216311118850868 -0.012359918308740107
3.8220405462917793 -2.6790132248197223 -0.005063822719683821
4.445884039579965 -1.8253159437712696 0.005541300543196775
4.202123316587807 -1.545671922119229 0.011756753685820317
-9.024185025776845 -7.634879594277549 -0.10319381983486052
-8.154230967063583 -7.253539449505715 -0.09504720578331394
-7.5960157982290335 -7.216494531658159 -0.08880997366948587
4.597532692669621 5.095414240472529 0.08918108029564845
4.875325850980811 5.709795709811099 0.09503641723342872
5.129845729828437 6.4696140336583055 0.10426139019611638
-7.266971913762771 -6.474029643718608 -0.08512145281236731
-6.441866805762592 -5.9632542559429655 -0.07555978677030263
-5.373208332020791 -5.2294388064045725 -0.0651112647755802
-4.367063788581967 -4.504650935743199 -0.05495419678404824
-3.3925157001779525 -3.773867396267508 -0.045034244799003434
-2.658013280642203 -3.341146065608106 -0.03777593678019587
2.471081259785133 1.892450792371914 0.037242226192134506
2.782033697333496 2.3894449328643823 0.045712717216415115
3.15681400935103 3.028695973515984 0.055322446221962175
3.5135409319769044 3.7236408542109545 0.06463077720523998
3.8865230583302663 4.355904669799486 0.07458556421972036
4.353279555019239 5.166069378213103 0.08434513217840381
-2.149347482909248 -2.9611175009255337 -0.032637666788380475
-1.2414688154491202 -2.4973274712156615 -0.02466491176435973
-0.026865499470482 -1.829120089300268 -0.019693696859948043
2.576176093499428 0.6902085013499885 0.019333504184985972
2.076437146245698 0.9622140864475326 0.024210285203087933
2.29564896940099 1.5283266549485586 0.0325723812050398
1.061097492544207 -1.7849350185506403 -0.016837141815756733
3.32194743716216 0.28873224337722914 0.016361998242724177
2.4625484303772245 -1.5445573181266512 -0.011898681787196037
3.4682032500815176 -1.1862533317639328 -0.005970796373264933
4.191152821974335 -0.39564327698620955 0.0045679563066927924
4.030312945778847 -0.0382397450875166 0.011459220240137154
-9.861183577770753 -6.833448568832649 -0.11410712028672187
-8.992102613616604 -6.514142664890516 -0.10556086020909322
-8.1314151003209 -5.779101663547856 -0.09603121123308954
5.005295464688199 7.194957201096329 0.09571104481366825
5.4796574963894455 7.924527354421309 0.10473829978122885
5.822205660803326 8.580788557494609 0.11410257977690917
6.052628629171037 9.634289847387423 0.12087358960488973
-7.707289510650549 -5.314293831079323 -0.09099428426803044
-7.2309675155117255 -5.046899671088662 -0.08523434423093569
-6.36496018347919 -4.386286674462286 -0.07520663722326802
-5.408734507099794 -3.744893121884556 -0.06532684021294936
-4.340606686485475 -2.9093172612769247 -0.05424677623529208
-3.455529993880144 -2.2647745772360706 -0.04501754823889197
-2.604156507170939 -1.9273800034285213 -0.03640258716516723
2.365890451659308 3.3034622899237913 0.03681347077195639
2.7192622045323773 3.906909123921412 0.045537586770251375
3.095102000814497 4.473690493788708 0.05467638378752847
3.514184919305724 5.082808367208762 0.06498709281587299
3.9288467232129136 5.946731521424657 0.07532991477052918
4.422861126611666 6.443109067642151 0.0849168228172983
4.769339418957454 7.257065692298193 0.09108815270317415
-2.0923735456850046 -1.4464885904535654 -0.031090464199300862
-1.245331130900183 -0.9339842817120795 -0.02377041820253337
-0.12333616649030854 -0.44604617694122006 -0.01929297925540157
2.404212810068495 2.1459167498504543 0.019115326755977075
1.9709272606903179 2.2875236562820946 0.024597074824206706
2.165736962695943 2.6295798329904194 0.031200160856369615
1.0675610896991845 -0.4160303620937349 -0.016135599201065717
3.2885760271811044 1.8548013610302385 0.015238376763428665
2.2994386097645165 -0.3209036163597915 -0.011864793143474703
3.3593983731564876 0.2989100760782382 -0.004776330882638359
3.9604180977974224 1.0576192755207376 0.005617018103719759
3.912486737285918 1.3233835820229607 0.010684316827449369
-10.666035167456092 -6.080918840045207 -0.12446300071317949
-9.688144350157232 -5.663890272868947 -0.11488677064347662
-8.852851346660643 -4.980327047996167 -0.10523248064996557
-8.241120469547504 -4.601841104539169 -0.09783496061255505
5.191550736837468 9.00513232511351 0.09820541633545983
5.52374072683698 9.338558575105132 0.10443826936274207
6.087659700140657 10.127755113947384 0.11508043934517867
6.4189768175940145 10.73035737277869 0.12429075935343553
6.680772980538966 11.922288866346696 0.13190081915780036
-7.80903878650294 -4.1128248853212614 -0.09264601065152007
-7.179161322242463 -3.5341021722548724 -0.08468458866125317
-6.394050835769251 -2.8600171636687968 -0.07561569767667484
-5.464802889867919 -2.2366043128661333 -0.06546396065567699
-4.436365336023363 -1.5604949079233577 -0.05474831963878327
-3.527967150296515 -0.7877154730146398 -0.04511563567172951
-2.545275440231761 -0.1488277656142425 -0.03470394865005146
-2.0009928949645235 0.5490324973365706 -0.02887659773718229
1.9480112156570697 4.468493559729925 0.028923563274442576
2.2013684990627036 4.648026316515941 0.034786290339221586
2.6261437642781797 5.460968995826215 0.04482003930257343
3.041108652577843 5.99942160715654 0.054534214339611795
3.4476215359118436 6.648737949044522 0.06439418234722304
3.9587734459923736 7.560565529135994 0.07538737330090077
4.462655812453559 8.121201325407306 0.08544137233825849
4.876091421215723 8.573367593697977 0.09252510934790538
-1.5053719274852968 0.5259629228025786 -0.024485527642708692
-0.1834350928257098 0.955685890856864 -0.018791018654274856
2.272259519287799 3.6360961916198735 0.01876002131417234
1.8123587345196048 3.8701724283838956 0.023793721346474398
1.4389014441893218 1.1932434120308875 -0.014149899630833053
3.252858033990628 3.2442622916834765 0.01424159933818672
2.356069340096784 1.3746567670111443 -0.010406416608950125
3.035388797925714 1.9653400623503234 -0.005030996873846676
3.690815336837002 2.545366345277332 0.00486766945475067
3.7979786041616466 2.4997203677641466 0.010092239472465396
-12.065804535311912 -5.2215079575099255 -0.14092082129274686
-11.397571999076298 -5.281582668994248 -0.134194871140822
-10.524672134583984 -4.813791480819384 -0.12589993111153042
-9.669393762704876 -4.044594389675422 -0.11563458113078949
-8.831618195800731 -3.535156378683163 -0.10542775107544278
-8.15874717592338 -2.677222744335402 -0.09698043915691613
5.165943424278334 10.39356145516714 0.09763186291897588
5.603532474884547 10.94083917937358 0.10519068891037091
6.16281089239604 11.62143986173107 0.11540777891599223
6.666429059624157 12.345472402981297 0.12460681888860088
7.080328791819719 12.996305005001613 0.1348720889038687
7.31848382212943 13.876874391099369 0.14157664878096793
-7.861232258878997 -2.713362112435711 -0.09320957307102304
-7.208639880575777 -2.0398040585466872 -0.08479359109933766
-6.060304838940908 -1.482989248520032 -0.07614227508889422
-5.457049498677583 -0.6462702993643323 -0.06484881110730616
-4.60193735616309 -0.20333806992699044 -0.05593069005831028
-3.5949988057159934 0.6479998166880678 -0.04521937809261952
-2.6217097253327575 1.3474211960771587 -0.034792819088302764
-1.8953654480221904 2.154657155431896 -0.02689072816588173
1.8064060285120753 5.706655455969014 0.027246369879740235
2.1292865171894344 6.208908489793288 0.034654943881267164
2.6078705697229507 6.973350866230042 0.04564026287778179
3.014195795084827 7.597578827584081 0.05518411688639494
3.431158737529871 8.199075221950132 0.06508514190877632
4.367210676019621 8.94612103550095 0.07640096391696997
4.390743303951153 9.635908570673296 0.08458080787920241
4.850304612502049 10.056826163545033 0.09230922791084724
-5.274767497801435 -0.9867143627799102 -0.077780814266406
-1.403381357500677 1.9367514459879118 -0.022556334015704397
-0.4173254800598407 2.3473172367694253 -0.018691073058234833
2.1807220966190917 5.077639150125001 0.018298691884436898
1.6688121355643026 5.228441149691465 0.02269003592819536
5.345189349423898 9.499741455531364 0.07734577277435112
1.2260384212718702 2.802674378724075 -0.013910609095543595
2.264836702818382 3.5873027290933575 -0.008956122525427702
3.544369900622019 4.3322203859504445 0.009029813916671334
3.1651810954301847 4.6567789556458585 0.01357830591288291
2.859581650623177 3.3434621550068107 -0.004494033865133189
3.413194422159554 3.9581523385079693 0.0036112406175160565
-12.867659207480834 -4.481179872409435 -0.15127267171556458
-12.223980883960799 -4.664333007741438 -0.14486507153409753
-11.263481055559131 -4.034922785049021 -0.13536617152789437
-10.411408207473725 -3.348464679330873 -0.12503214152164502
-9.608160874921277 -2.6938585413781553 -0.1152197315165272
-8.806897942578313 -1.933737848948594 -0.10508387153572606
-8.133591542347588 -1.298601245501784 -0.09641516354778258
5.058109502163757 11.833982159311976 0.09615956846936635
5.604731239606111 12.476634774029419 0.10538456846623334
6.166711191272982 13.16361309887813 0.11496472845726688
6.697358899823218 13.817691366996144 0.12444395845588097
7.310465174480282 14.589428908284225 0.13563279845433432
7.671782571535388 15.113313514295289 0.14480411848477484
7.985439567526271 16.17258090878007 0.15244867832852893
-7.774280746403573 -1.0235427200686713 -0.09179811353576126
-7.178700004123755 -0.5800803493127331 -0.08406405351058034
-6.0195775994716705 0.025877242262892786 -0.07609976952820101
-5.530793861288657 0.7636367502931307 -0.06504802552257531
-4.549662259775077 1.599191409004642 -0.05461764155789399
-3.584870429970518 2.241931243163317 -0.04433570253993232
-2.696510720420494 2.828441277059753 -0.03483339552114656
-1.84199906147558 3.553720782499571 -0.025517860546573828
1.6682130418283745 7.031133158631917 0.025837002465210236
2.081746053060811 7.686952421463809 0.03512477745949073
2.512648109339838 8.35789697308817 0.04496902046047852
2.959033698834256 8.90528884188001 0.05511684150357445
3.3820718163235712 9.698418304050659 0.06521196547393249
4.4739397412019954 10.492659958741921 0.07610289645986819
4.3545591985053 11.100566564456333 0.08451207545056902
4.793694211687907 11.48653996114863 0.09169739348155506
-5.162873890114195 -0.03847494667289286 -0.07640264351548079
-1.363639016103428 3.4197926679903574 -0.02121910642160603
-0.35005823067180886 4.179449513315772 -0.017628386571456885
2.0707784543359136 6.51343831443429 0.017689356453419482
1.517088466171219 6.607396984254775 0.020984923491863695
5.328352779962351 10.35501827115938 0.07682872451452381
1.0107527847388063 4.228694563796432 -0.013836073510042998
2.3843437940121412 4.857946346438932 -0.005937004135762035
3.1928595944772744 5.613682011898419 0.005759219077497989
2.967352623329687 6.2062640035807375 0.01320889145349602
2.9189693510141774 4.4305046473730965 -0.0019348960311001578
3.0991499275135834 4.789916793028925 0.0010129841229601785
-13.686301409938917 -3.7285513480983186 -0.16155544214059012
-13.033394186813432 -3.829297891621743 -0.1549517519792438
-12.012096776327406 -3.1515157287080973 -0.1449716219775353
-11.224499423906261 -2.4771134352257285 -0.1353662019823284
-10.416984778640302 -1.8882465303525215 -0.1253951819548642
-9.597640226131574 -1.2681436006090872 -0.1150021619280794
-8.808216811506682 -0.46857270913832316 -0.10482912195804346
-8.048548502852556 0.36451429766068344 -0.09483845000142876
-7.447313768581448 1.1991789631600245 -0.08656934107967516
3.9659656803424115 12.908328519564737 0.07983831882982849
4.312799697434947 12.937056742036303 0.08510330092665482
4.957544133202237 13.350053063746016 0.09515917800711843
5.565146534784779 13.817580406074523 0.10504815806833964
6.164832228588798 14.658183446666268 0.11517168802541662
6.753224623595622 15.345108066922766 0.1251955880253328
7.3386029753996445 16.036864017010814 0.1355301380300471
7.863240579021673 16.665177080828315 0.14497357803546207
8.300011883210399 17.30284532886413 0.15507009805119806
8.579606502563633 18.24380639600048 0.16247570792468888
-7.273222814265275 0.7151767342924735 -0.08460130689915941
-5.969732068083859 1.5436929717578387 -0.0759534259680435
-5.627365947007506 2.2730635392379748 -0.06533342796859792
-4.650153017542429 2.8737293897213103 -0.05501466393762688
-3.671556649979347 3.642287356956108 -0.044420027950119595
-2.8261542437543197 4.26520128960127 -0.03524373994846796
-1.9059340509978164 5.023437880682455 -0.025053355966027698
1.3103383081045108 8.813700598300835 0.019937043827316876
1.522231742137497 8.51268921241714 0.02501312801655795
1.9676259648796361 9.089592993583402 0.03458383903951285
2.473096529714385 9.924448464655867 0.045892672021951623
2.891205273027152 10.548733304526811 0.05528492702751888
3.3253112072488022 11.346498286868709 0.06552587999943868
4.4751966761157025 12.002093174991709 0.0767069290316167
4.255346498655906 12.256739981496619 0.08376414109835258
-5.1203564815452545 1.0196702658545398 -0.07553221480676242
-0.3581960694588783 5.668035536908095 -0.016811046989364597
1.9964286171040466 7.839404898159706 0.01686775105020002
5.218601563511978 11.872549017179159 0.07575338905035245
1.0226927894789872 5.979786401990493 -0.012548546995131658
2.1808165367835857 6.422950503024368 -0.00477448716906446
2.8579472176109784 6.968126294776293 0.004632420759872741
2.7846186672707702 7.627857418948183 0.012619489027020923
-14.359053491608607 -2.999103349291035 -0.1710274725426531
-13.803139868051284 -3.039514907195855 -0.16534670241734942
-12.727373055931684 -2.2885940004768095 -0.1541503224126729
-12.007439855493178 -1.7398314552176135 -0.14525543239501332
-11.193036826260546 -1.033544826944338 -0.1351454723990256
-10.440385072821938 -0.4830653446496189 -0.1255719123683055
-9.598107528291195 0.40009503018274994 -0.11469743240863729
-8.851178882069727 1.1220659109740323 -0.10481305242173253
-8.134091565405814 1.7266808717779494 -0.09516456940530726
-7.366945028317572 2.30900315526372 -0.08485292136912735
-6.985356626478092 2.978761489053963 -0.07943700545628192
3.906360757193101 13.636169101158119 0.07944320660961257
4.242932717304057 14.068858968193858 0.08484565959134498
4.9085313718863866 14.768825408122066 0.09537878359763215
5.528247654571464 15.351237709941769 0.1051707576234015
6.1619961929985525 16.185217872014015 0.11552562758703319
6.725494792071764 16.966195704050058 0.12499761754848435
7.300370142079566 17.456015022158297 0.1347389176002517
7.922677571978024 18.19513127596298 0.14559140760150005
8.492695720961642 18.946331116799705 0.15574120758518206
