# .PCD v0.7 - Point Cloud Data file format
VERSION 0.7
FIELDS x y z
SIZE 4 4 4
TYPE F F F
COUNT 1 1 1
WIDTH 820
HEIGHT 1
VIEWPOINT 0 0 0 1 0 0 0
POINTS 820
DATA ascii
-101.70839969256635 -101.95474765339817 -1.45409324489252
-102.1887623345255 -101.8060119722971 -1.4633179055808803
-102.65835835797175 -101.8210545004143 -1.4724191255542187
-103.09474068151057 -101.74748395308728 -1.4811881311916646
-103.54234353115187 -101.73796578380936 -1.4903327899486698
-103.92076884237687 -101.67269115571553 -1.4985090342739555
-104.3087877057306 -101.56732493093482 -1.5072551033986032
-104.73583518080824 -101.59394065159567 -1.5166064721688275
-105.12436311247497 -101.44352901315432 -1.5257113794542732
-105.42848680418 -101.15978509945714 -1.532366823641796
-110.66421158856691 -100.34786600862328 -1.667904283268812
-110.90929032975578 -100.59122570204408 -1.6756167195142617
-111.14929613488195 -100.39969422566385 -1.6834114938633353
-111.46020265139643 -100.38526075780425 -1.692792849103251
-111.77092232925625 -100.41637647776801 -1.7020861435552217
-112.03460877783267 -100.25681197796455 -1.7109907787513858
-112.29397644827505 -100.30091760324432 -1.7195491543685881
-112.51207077456938 -100.23207890527226 -1.7275976332474476
-112.7502950584891 -100.23807390109123 -1.7364245550238981
-112.97112522516666 -100.19217724013077 -1.7452199308603902
-113.09630218355746 -100.28598327113167 -1.7546860494070466
-113.12985969616942 -99.68362168617281 -1.7601121652448581
-106.27797763139729 -101.46936043312866 -1.5346078591149392
-106.14178777754614 -101.29384032885287 -1.5434599763052332
-106.75808394350746 -101.27486265456702 -1.5527284399218386
-107.29395053744975 -101.25182703776424 -1.561056356114024
-107.90850584548723 -101.19871368630763 -1.5709673080843594
-108.4523477223183 -101.09557635363682 -1.5797372440223203
-108.91328788992108 -101.06039616245754 -1.585516922868475
-110.22210229023439 -100.9974375559808 -1.6187147989731765
-110.16058238309955 -100.89984295311872 -1.623605228977868
-110.28719130617773 -100.8564371160886 -1.6328625650605455
-110.42751560528295 -100.9296353810403 -1.6411008278736507
-110.52160755139437 -100.81312229055456 -1.6502465872714682
-110.59726503610717 -100.77854790137813 -1.658220839104123
-111.42644268905872 -100.67332755159572 -1.6686914842873257
-109.99806683874299 -101.06653162100699 -1.5898057138998156
-111.13713508948922 -100.85741001218335 -1.61559485477095
-111.07991070987985 -101.30087876886401 -1.5947853317520457
-111.5080684377997 -101.05425377074862 -1.5991483378745401
-111.87902263947598 -100.92273841385689 -1.6082714575052615
-111.89879987277816 -101.25426920145277 -1.6143883659002676
-112.78504622503695 -97.86335319878964 -1.7645332004264072
-99.87355656721091 -99.87984114494803 -1.424141078808442
-100.40153429857423 -100.37588731827945 -1.432291051270937
-100.9834379654576 -100.36737605641721 -1.4412482757921883
-101.41149145596349 -100.29106701886913 -1.4495487013009094
-101.88638417548547 -100.31001880985731 -1.4588210404311437
-102.31359499791758 -100.10680365556564 -1.4675506997252168
-102.75494437168445 -100.14489626535762 -1.4766177405328242
-103.15967889659119 -99.99265787173898 -1.485621429815042
-103.597784197512 -100.19330712918844 -1.4947749618310588
-103.96642371146187 -99.99969365954337 -1.5033503901991994
-104.37793533475195 -100.0622356232539 -1.5124394061271071
-104.73102723039823 -99.8234672100042 -1.5210773005431069
-105.31097407704918 -99.85959777236707 -1.5319416783684159
-105.48221096281533 -99.64205423172224 -1.5351435529331487
-110.11982334155935 -98.67579600136517 -1.6559669613603283
-110.3352642994813 -99.0086458222345 -1.6625410130560823
-110.50584016443847 -98.92088521016679 -1.6708551870522719
-110.78446129456893 -98.8314909879134 -1.679270075949768
-111.09595975582552 -98.8019620935739 -1.6884601723192532
-111.40083470447013 -98.81342558982634 -1.6975637963779957
-111.69188518188251 -98.88298885742714 -1.7061044174689348
-111.95778968852218 -98.70591845086186 -1.7151220336831716
-112.19914020812362 -98.61810771376292 -1.7234023223420971
-112.42713592719163 -98.51421608507559 -1.7318553173643902
-112.66027092213999 -98.48928224999474 -1.7405187586917177
-112.89347723310323 -98.51284987283 -1.7491676585091707
-113.05427550381515 -98.50727644156156 -1.758705445539945
-113.06321859914388 -98.0778174245543 -1.7643021399577572
-105.94923624106241 -99.780424167831 -1.5297339015321298
-105.76521706120562 -99.82125595224261 -1.5391549704428034
-106.34857128443291 -99.67716328100076 -1.5480862115183494
-106.9021157714833 -99.61036749448779 -1.5567703543390015
-107.47001374014286 -99.57912292633421 -1.565910937626749
-108.02269407075325 -99.47804063582544 -1.5749293959587891
-108.52213849944785 -99.5800353748124 -1.5816004282503027
-109.76972356245774 -99.2288006044079 -1.6132684449362258
-109.75513148707576 -99.25426551485732 -1.6195795412974663
-109.85515354609204 -99.17656250546703 -1.6271124201389884
-109.96461495916867 -99.03974491200931 -1.6360860830263726
-110.10573498925066 -99.17732143679568 -1.644498922893381
-110.1676072162708 -99.01900523501175 -1.6530372303915304
-111.24369917173013 -99.06753303944342 -1.6650735345566243
-109.90351259714579 -99.53699317716107 -1.5874665353513235
-110.66007704414497 -99.21571810780041 -1.5921873132950843
-111.12930644213678 -98.9871378746262 -1.6043874767980764
-110.77779174266117 -99.39736419541447 -1.610738386187911
-111.09017350772632 -99.50125454328176 -1.5970853551557953
-111.29197589144265 -99.43198821499945 -1.6029110869085954
-98.89681361387515 -98.17457730298337 -1.4103846181737936
-99.31315375830728 -99.05768023004282 -1.417757996395166
-112.753257884239 -97.19432540482453 -1.7662219475469376
-112.82689654738186 -96.29585956551526 -1.7697738844108373
-99.19181902381837 -98.42036407334463 -1.41159007540586
-99.66797964940187 -98.72409739638813 -1.4183248869309495
-100.21817781897072 -98.76173935698634 -1.4276659913114258
-100.65611775093696 -98.59569671292988 -1.4363478056668497
-101.08481549296357 -98.60192518729868 -1.4448502109193289
-101.55501998382815 -98.62154283015916 -1.454183464014159
-102.01375350754059 -98.5410529415711 -1.4639343131661662
-102.36931090533908 -98.45779469491507 -1.4717805132552726
-102.81389132720392 -98.48363762275407 -1.4814591652259699
-103.16289006874824 -98.30662347625208 -1.48956950484942
-103.63931317439435 -98.4536687409597 -1.499943872020018
-103.93618134632919 -98.16527635387882 -1.5075252000919863
-104.34409007269662 -98.26726356438216 -1.5165773237964735
-104.83542383946434 -98.19540259380881 -1.5249348380575423
-105.16314821208223 -98.03631204314826 -1.5317636642814931
-109.77586891369313 -97.29729959187705 -1.650887743703546
-109.9623511094887 -97.51221077058757 -1.657307181820484
-110.12410628773569 -97.33172339458397 -1.666597771504924
-110.42682668106539 -97.33487384766127 -1.6752140053835234
-110.70301216072835 -97.20393759704874 -1.6836603140279287
-110.99937110199082 -97.1390986917148 -1.692518122666711
-111.26479180073929 -97.03164730442842 -1.7008690272926774
-111.55567123617924 -97.01325983104798 -1.7097995094732445
-111.85841284100017 -97.10707485241053 -1.7187477688583905
-112.10424653515527 -96.90929660567701 -1.7274276855737067
-112.34586084152053 -96.87373202282704 -1.735922971029931
-112.60249035696903 -96.8957710944301 -1.7450961202590336
-112.80965367432009 -96.72571815002522 -1.7533918768670174
-113.03314877820482 -96.78049730473049 -1.7626422096261285
-113.07719593292443 -96.377704690108 -1.768928513849262
-105.67944886729286 -98.1290517078045 -1.5252395814145359
-105.49591798732334 -98.05968965026202 -1.536716888017306
-105.96738031244081 -98.05548997299812 -1.54396035428658
-106.49728859881874 -98.00577188332353 -1.5523438247316808
-107.07540998286419 -97.79333807283425 -1.5619058993383277
-107.623772386446 -97.89839323176639 -1.570535887558323
-108.12733784939105 -97.7461798184878 -1.5773007041862452
-109.4189944277277 -97.78101421447555 -1.6086136742849904
-109.30110158864801 -97.48398305092083 -1.614003508595461
-109.47750363466353 -97.6281454377206 -1.6236239844791636
-109.59470108869846 -97.57937679690288 -1.6319050218836584
-109.70606876523657 -97.5152020054849 -1.6408089193632682
-109.7739887768634 -97.4493738029849 -1.6475282449066806
-110.92734670813311 -97.30817779478116 -1.6603531141891177
-109.22342706788577 -97.84890864442028 -1.5825284232580041
-110.26315433556162 -97.74044115567492 -1.5901630731563983
-110.62158187937139 -97.717927175645 -1.5985338194337455
-110.1614267032647 -97.63007853836241 -1.6053564870939108
-98.2455085449987 -96.75019901569935 -1.3974321991277279
-98.50703019650193 -97.22835297548065 -1.4034100463933832
-112.66377151365676 -95.17579176392171 -1.7690371298699927
-112.77752963634438 -94.73544750580885 -1.7730498636049457
-98.4834881119329 -96.75754145214815 -1.397924346813625
-98.92117787516798 -97.11399009159945 -1.4051642612755888
-99.46847972512904 -97.17046282724766 -1.4144340173707362
-99.94060252702656 -97.0535025426139 -1.4237672676072275
-100.34787190648616 -96.94329920641728 -1.4320269423768317
-100.8192135545753 -97.07823175998314 -1.4414179037591655
-101.19818214928516 -96.97066432066002 -1.4496263981774393
-101.65329168606013 -96.94770958326663 -1.4594919461118738
-102.02079860565074 -96.86133901766131 -1.4677303894376472
-102.38982241320807 -96.74556575711955 -1.4761692997834326
-102.77528561056118 -96.64836845069455 -1.4851533843771474
-103.16068308604122 -96.6966762515711 -1.4939494962999873
-103.52442689320807 -96.56096723277501 -1.5026935342254508
-103.89967017406795 -96.51333095565407 -1.5113668870239203
-104.42113138213372 -96.60311536834564 -1.5196479883248795
-104.88847585302722 -96.36922555221685 -1.5292076520159497
-105.09348771799355 -95.76326632658143 -1.5329414477412935
-109.35179046385858 -95.66574472093879 -1.6441871691336771
-109.57409468869041 -95.57108378113558 -1.6532062602714472
-109.71245688099434 -95.6284986270085 -1.6619914667513305
-110.01346421904918 -95.55937404287005 -1.6709539899883925
-110.29938138770682 -95.5077323527282 -1.679352048093339
-110.60678722472619 -95.46503256726092 -1.6881659471300918
-110.9030557939713 -95.44697366180186 -1.6967080940860448
-111.21878524594047 -95.50542329417591 -1.7058476587034277
-111.48005526978378 -95.36974006902639 -1.7143677972476494
-111.7577049622501 -95.2977788427623 -1.7232315216579632
-112.00552938830452 -95.22341497712179 -1.7313793636038537
-112.26654393574019 -95.10731695816382 -1.7405425176588767
-112.51007258396054 -95.10131245933314 -1.7491805798635198
-112.7546364544655 -95.13969905496654 -1.7579055966566985
-112.93453650781436 -95.06809994280897 -1.7667208256759688
-113.01932531999121 -94.64455115876822 -1.7729133401860946
-105.2528673837093 -96.4680807831314 -1.521011573157133
-105.2345609785605 -96.74146053161455 -1.534082225430295
-105.53093669573788 -96.37911490520433 -1.5390835101120932
-106.07170507471028 -96.28185704712752 -1.5477716436307305
-106.63289056553342 -96.30640267114309 -1.556671021359735
-107.20646106857652 -96.22714186771078 -1.5660318667630748
-107.75741811294913 -96.076686574881 -1.5735860768108856
-108.9611369954491 -95.93697270153706 -1.6028107403085552
-108.88334008059113 -95.85262015990254 -1.609489310412572
-109.0495038362956 -95.8986351385034 -1.618927322743071
-109.14136753461077 -95.759492987243 -1.6272244176117243
-109.24351262311848 -95.68124297684656 -1.6354205107657724
-109.41657409835439 -96.07689419298866 -1.6421093369413484
-110.52295841964198 -95.67078268495715 -1.6558319029579476
-108.79590675942833 -96.27556229620582 -1.578836902492409
-109.60071027761688 -96.05995282834665 -1.5853285518749423
-110.00995252060049 -96.18331460567279 -1.5937677126424923
-109.72146967547798 -96.10796438628103 -1.6003217725783192
-97.61717044382962 -95.3143345311757 -1.3847563083301473
-97.86377829419693 -95.6987448605684 -1.3904574389947495
-98.1547284826174 -96.01894190181181 -1.3974497047726384
-112.64098480959812 -93.60194385231877 -1.7723649855539994
-112.76957595258652 -93.06723594447904 -1.777896517925457
-97.77997559748627 -95.108141478545 -1.3845699547372703
-98.20024654573457 -95.49175737259046 -1.3917450687504616
-98.6746618531547 -95.70503393682762 -1.400488618262829
-99.19711992666514 -95.5180957192929 -1.4106420004918099
-99.59396322542192 -95.47553483444584 -1.418623062350303
-100.00252072867917 -95.32055565870775 -1.427322712838862
-100.447462356113 -95.41222970597788 -1.4366781078064232
-100.83839723371554 -95.35485571783701 -1.4452297592601782
-101.23582342137219 -95.21593107610818 -1.4542282887692175
-101.63286530157197 -95.25483296288047 -1.4629287202123935
-101.96412280866211 -95.14424711919037 -1.4708074941576512
-102.3829517121512 -95.0061683657191 -1.4810068686651885
-102.7819227215565 -95.0761428483547 -1.489942281028813
-103.0660823712978 -94.78633867036186 -1.4972285227032962
-103.50832391833544 -94.95535724166295 -1.506908448902726
-104.10970824978004 -94.74653625342717 -1.516343312974908
-104.53949229650088 -94.82904842851097 -1.525421832494222
-104.87092410568282 -94.51233998381466 -1.530879916741944
-108.88291050234744 -94.04915788529132 -1.6340477754355998
-108.98020753236332 -94.14697494685778 -1.6399542298312102
-109.19117537520583 -94.06846596615671 -1.6479610383945233
-109.33073100483023 -94.07185430440222 -1.6578487733488643
-109.56592235376067 -93.91684580573524 -1.665098608547054
-109.85676391427083 -93.85258947627372 -1.6737041791042007
-110.18666923160305 -93.80655987994669 -1.6833867569520398
-110.47454201653909 -93.57943880917475 -1.6924205920111712
-110.80982085282903 -93.73416702902648 -1.7011344050362902
-111.12080011761496 -93.70832787080485 -1.7103817378999506
-111.36913992330084 -93.66018611161151 -1.71813081001431
-111.66912801356773 -93.68838919847605 -1.7272553987405046
-111.93848942525915 -93.56356843305105 -1.7362202388777483
-112.19288321079641 -93.52501817276429 -1.744561117183906
-112.39452691146822 -93.2808328580835 -1.752550996038927
-112.63166752737311 -93.2334365996646 -1.7612384488981219
-112.8948987489452 -93.3403742325672 -1.7712921752677377
-112.98983431070074 -93.14064739065506 -1.7769956100364865
-104.98096831879984 -94.91662401671172 -1.5166623371304337
-105.21745061712144 -94.9114733736831 -1.5359028943982012
-105.69585203044186 -94.8469184550574 -1.5435215432044547
-106.20041229117331 -94.64016606335923 -1.551741534286687
-106.79525939176068 -94.63289265199731 -1.561677663529557
-107.39309026133915 -94.44699071417902 -1.5696891304850662
-108.54168018278237 -94.32403258769024 -1.5978473992463933
-108.49169604755302 -94.33262708649713 -1.6056055228839978
-108.6425220292842 -94.24734746932161 -1.614199739037046
-108.74566874560219 -94.1732393774814 -1.6224311177588837
-108.85389834497386 -94.18406740241555 -1.630055313530831
-110.12778874410253 -94.09145924876576 -1.6517899710177493
-108.26353877504305 -94.67729096372472 -1.574762343468958
-108.95044221316485 -94.42799735555195 -1.5805282624654262
-109.33995952685116 -94.46036475140984 -1.589267032079869
-109.15283332073885 -94.22606516829396 -1.5940202538062151
-96.91817612559076 -93.51064604969199 -1.3704105110670337
-97.25051264425876 -94.27216630748894 -1.3780910279217413
-97.60019559680873 -94.61225212701244 -1.3855007498525476
-112.62704565709858 -91.75781951402655 -1.7776990523622018
-112.86697803572089 -91.53438136954695 -1.782448494767029
-97.48947898888538 -93.97163463839829 -1.3789112136519457
-97.90658823300886 -94.05532937999092 -1.3866018974431182
-98.34038924285187 -93.80768830713782 -1.3954234415756765
-98.82980631405012 -93.84083072966921 -1.4052350724876952
-99.21639887346713 -93.82861288132221 -1.4133762036350845
-99.63466380929397 -93.61916875176797 -1.4227982541492
-100.04281014803638 -93.72603659854052 -1.4314532209240551
-100.50876782955069 -93.66805805983276 -1.4417790393451546
-100.84659668492145 -93.62299871842721 -1.4494525610887887
-101.21303535684892 -93.44946491912955 -1.4585391183921939
-101.59622217964738 -93.48686734232332 -1.467371409143863
-101.96928663709373 -93.41289585278719 -1.4760965430221131
-102.34983904717477 -93.38575323451158 -1.4849390016917283
-102.68669800054836 -93.25536731901987 -1.493439452951203
-103.08762901784509 -93.3314566408058 -1.5029567994402664
-103.70461839611728 -93.09408866077244 -1.5113976057577079
-104.13357674667918 -93.208806775403 -1.5207231527072693
-104.60433582845656 -93.0351288092809 -1.528343879091553
-108.44954108493165 -92.37450197958407 -1.62753296058806
-108.57506946201744 -92.47477053122878 -1.6352394386215332
-108.91711906639304 -92.3446427249251 -1.6450008360433648
-108.83746457506211 -92.36685880070598 -1.6526666163813089
-109.13738297493482 -92.33798811465067 -1.6605835843565133
-109.50539857121316 -92.35493954657876 -1.6702558192025143
-109.76558937880743 -92.12587925082089 -1.6784925527144594
-110.06972647588881 -92.09061855894868 -1.687331404526991
-110.347205676919 -92.02076631946771 -1.6954885965026485
-110.7037543470161 -92.06723114055569 -1.7051395234919946
-110.99576786862556 -92.00894196475676 -1.713711126066084
-111.30360156163358 -91.99550221333541 -1.7230806174042286
-111.58225368406411 -91.88810944414125 -1.7320183837569822
-111.80085628589481 -91.7737735092397 -1.7392862273364322
-112.14045304869919 -91.80504468295774 -1.7499208579972343
-112.36158394707033 -91.76733923661416 -1.7575959394799103
-112.5766970061229 -91.61052972209046 -1.76583854559715
-112.82123582314945 -91.68948589202384 -1.7746758377857375
-112.9240383643972 -91.22189569825184 -1.78070485271415
-104.63726947110096 -93.13278367026493 -1.5115906931984
-104.95174025273022 -93.28736548618386 -1.5334719138126953
-105.29562309970342 -93.03901756213008 -1.5390477899328514
-105.80965797403306 -92.92981946855583 -1.5475540294462582
-106.3291823626907 -92.91802396890174 -1.5566415087423975
-107.05410181981635 -92.87198373737792 -1.5663710774504003
-107.61546898240736 -92.1867261475125 -1.5691785943723857
-108.13067312937063 -92.71281849405474 -1.592395853021801
-108.05676018322605 -92.70076973786735 -1.6008531925426759
-108.25119362733479 -92.70741913018155 -1.6094823407057093
-108.32896182508958 -92.43917131838232 -1.617339006142616
-108.4450076677046 -92.56298516165853 -1.6240079222787525
-109.85625343416679 -92.25130852735593 -1.6467919831670512
-108.08365436780514 -93.61682840427798 -1.5729036406681458
-108.33197473304197 -92.79391647784675 -1.57591836949081
-108.66441126020342 -92.77300899997799 -1.5843223149911343
-108.78315556470287 -93.09671688919593 -1.5903076937565863
-96.1349069374734 -91.95892596240921 -1.3569436011856413
-96.62406746775208 -92.52371697860774 -1.3644065526953928
-96.9361415353645 -93.05774033262317 -1.3720077314570265
-112.8361292662748 -90.01227887786841 -1.782094297861963
-112.81811348878661 -89.70763019059326 -1.786584650072232
-96.86486833386377 -92.312411491675 -1.3676936369537485
-97.19634786357456 -92.3908484351391 -1.3741088073872845
-97.64712358126671 -92.38248599473123 -1.383127188371071
-98.02553977968465 -92.28556397774304 -1.3909486564656057
-98.35599624015858 -92.37046031344208 -1.3977157091867167
-98.94598724733872 -92.42139182413344 -1.4103177100846214
-99.30160914456683 -92.14585465434814 -1.4186720711761738
-99.68087866114698 -92.03392411531176 -1.427317740144056
-100.01251133880436 -91.91222561036416 -1.4352055240694996
-100.40469722762136 -91.9435182203523 -1.444362823924658
-100.81403653618733 -91.88247378548009 -1.454061325890202
-101.18140730771034 -91.77651221806866 -1.4628817074425704
-101.57843553167685 -91.85926112638019 -1.4721084790531018
-101.85385538198007 -91.63708232164971 -1.4798817042155743
-102.25252358656091 -91.68729902826844 -1.489509476859854
-102.62365610208884 -91.7126241818767 -1.498467956377438
-103.27425284600126 -91.53589649224523 -1.5064323015839183
-103.73555084623793 -91.52901774282837 -1.5162826529389237
-104.33567945997247 -91.53058167865488 -1.5255689335875942
-104.58273848916866 -91.0938396546492 -1.5295487226418842
-107.86928763761725 -90.10076493367134 -1.6154594124611086
-108.06980915997116 -90.791859325919 -1.6221683616670097
-108.21045106721424 -90.91930107420556 -1.6316929420364443
-108.43704046853014 -90.77691367698074 -1.6393832181478307
-108.47029816667106 -90.70241212676173 -1.6470957325138373
-108.6876737228315 -90.70088402788762 -1.6566160121455855
-108.9741603863384 -90.47591459634256 -1.6651368854426045
-109.3362870374665 -90.58938270920127 -1.6739083846575427
-109.66708901038668 -90.48268825596227 -1.6830545301867563
-109.95829361335731 -90.35076315222588 -1.6915877633277252
-110.32309032103117 -90.41916759773999 -1.7016031609373978
-110.633156291388 -90.38286221943304 -1.7102791384302027
-110.90161351222298 -90.26529205341055 -1.718279276040686
-111.1548536406714 -90.1525352563147 -1.7261566674329454
-111.55318861358694 -90.5049747033039 -1.7367267822582928
-111.82091925411906 -90.10341623615403 -1.746646785738172
-112.01916572149467 -90.17860372013635 -1.752592515766963
-112.2982732309064 -90.04866579360026 -1.7623910918373644
-112.5123743109841 -89.94846497263933 -1.770302460614306
-112.70804234603014 -89.90299425421125 -1.777516549773293
-104.48600511424328 -91.53545477215414 -1.5073685513439874
-104.95035007934973 -91.4400284629692 -1.5349204922868824
-105.48933359921216 -91.37791036676083 -1.5427300759686304
-105.92419385485334 -91.31301622391128 -1.5525152042850119
-106.73171121925446 -91.13947214714949 -1.56281288380949
-107.52345335146545 -90.9850099674866 -1.568870721739375
-108.00167949636597 -90.8299290630835 -1.579823271683455
-107.64456077213237 -91.0200313178725 -1.5869999405303623
-107.61595837736547 -91.05113168168228 -1.5961857243620505
-107.90904488095065 -90.83280813631058 -1.6048504850259224
-108.00716605621612 -90.88604545387025 -1.6132519372530763
-108.1085194315352 -91.16310467024717 -1.6188252679644157
-109.80009219074263 -90.81136230772451 -1.642584231202209
-109.44911436710315 -90.29010290298521 -1.6436621380813603
-105.31633791775289 -91.05229114681845 -1.5067104676930025
-107.86914173702911 -91.17881514453366 -1.5653562583711578
-108.08663375477411 -91.31436514313353 -1.5707547564107043
-108.18670846159027 -91.51188587082541 -1.5796981677245385
-110.63006179239763 -90.41343226265306 -1.6435072835007851
-95.4076247199332 -90.1878364305151 -1.344133588984458
-95.92191402768492 -90.80166165642913 -1.351427411587035
-96.32530382309913 -90.66187169342864 -1.3585037119064591
-112.51312569525624 -88.14508758358431 -1.777399740795467
-112.67881156779941 -88.2470349044819 -1.7836779478321003
-112.74215649028935 -87.99369776354789 -1.7901856239202971
-96.56678649012598 -90.93018845913632 -1.3630663921168142
-96.89953455353941 -90.73701762070978 -1.3700396991162986
-97.30018064033487 -90.60599875634865 -1.3784112887693307
-97.69078573457506 -90.50910179616842 -1.3869181153950725
-97.90683313253224 -90.1074252491221 -1.3924670008402216
-98.74135621010092 -91.00452476753188 -1.4088739026785748
-98.90301418293424 -90.3656040162787 -1.414121354108771
-99.26940878452533 -90.34723446547356 -1.4227484860994188
-99.59323658067781 -90.31582556435474 -1.4305149905467276
-100.01535270594474 -90.2557137567551 -1.440572714632557
-100.3500285139138 -90.09343915039182 -1.4493467938345423
-100.69865767076574 -90.12061509321191 -1.4579321055852639
-101.0163705621748 -90.03941748804475 -1.4661962201175573
-101.40044424400955 -90.00681317010951 -1.4757489562804347
-101.77349619443511 -90.04821300562176 -1.484635518983108
-102.04091446504249 -89.9311730112796 -1.4925759437342654
-102.98131194174339 -89.86539117760093 -1.5022182716266184
-103.32534477060015 -89.89153640296396 -1.5112996366601787
-103.8896974747776 -89.80840421521832 -1.5199956230648213
-104.29437022713503 -89.68954628300655 -1.5262143233322683
-107.69691502746045 -89.41069634930057 -1.6134264679803894
-107.69468692617185 -89.11061038428775 -1.6172167065795273
-107.79796611185971 -89.15757951694829 -1.626253238404182
-108.03374279070746 -89.09547991719509 -1.6340255125668057
-108.05216113324579 -89.13556231013345 -1.6423827916197544
-108.16082740861542 -88.93509023652379 -1.6516649696111232
-108.53433455682045 -88.9917530154663 -1.6606159021463425
-108.89307980797274 -88.94652039373543 -1.670239756510599
-109.20724758306655 -88.8931190862744 -1.6786144261283
-109.51276008463812 -88.79714197310906 -1.686866878750482
-109.86197888756068 -88.72397441787328 -1.6961780074650612
-110.12865687104726 -88.58097212867224 -1.7040389611929134
-110.50118420413058 -88.70947070537434 -1.713753769556794
-110.78281404878956 -88.64845172367683 -1.721737880568789
-111.02775028383319 -88.4377142036831 -1.729489665846923
-111.35159554965962 -88.0913819603959 -1.7404943573894511
-111.67698793373876 -88.33672125796134 -1.7493150522797059
-111.93990257922209 -88.36627139855091 -1.7573130922995592
-112.22120130252577 -88.37810536263007 -1.7665493375597197
-112.37548795783218 -88.18120067149766 -1.7726625035905552
-104.20693850796471 -89.90448034501237 -1.50313881129248
-104.76250184304412 -89.72013494144065 -1.5311022529908984
-105.3957393132958 -89.71332401489732 -1.5400962531691746
-105.52861644162908 -89.69315665555254 -1.5474508774634075
-106.30320808953259 -89.59056816342361 -1.5584449267789733
-107.023025238242 -89.4216272937754 -1.564890215436852
-107.55244066864991 -89.5241120466979 -1.5757190274577428
-107.1539260133674 -89.45093566435779 -1.5826129989842508
-107.14191745588721 -89.26809525264902 -1.5908326267522213
-107.70128175932109 -89.24906894830886 -1.59997955760457
-107.82885957444925 -89.35964362233976 -1.60867442742001
-109.46008423730811 -89.12524347248096 -1.636601489920576
-109.47150714938589 -89.0449973426387 -1.6408266138631695
-105.33409385045103 -89.75102054710347 -1.5033740946977645
-107.54996210311886 -90.02691878496324 -1.5629755992246956
-107.61759408653975 -89.83621679709165 -1.5653231578444156
-110.64729244868482 -89.05909756162403 -1.6401805661196787
-110.53899743099646 -88.73196313450687 -1.640955186423489
-95.14112882559391 -89.13968846459967 -1.3390785320683825
-95.66635905343092 -89.09716495692936 -1.3470265926338665
-96.05111767993526 -89.00144883081221 -1.3548992314638166
-108.16976876259034 -86.48908482229783 -1.6697754679932428
-112.15459009237989 -86.50569921410678 -1.7718724165350028
-112.35550946788827 -86.43822151795877 -1.7786581999854767
-112.5470629635618 -86.40368578632896 -1.7875853333350742
-112.30020856404967 -85.68704391544885 -1.789806068841035
-96.28624862753286 -89.20032693290213 -1.3595479139730562
-96.57257163739986 -89.0145493920364 -1.365739923365384
-96.93740352092345 -89.04204655277167 -1.373470974398184
-97.38917035883925 -88.9986616366682 -1.3835893431780313
-97.73341164172636 -88.84941962105961 -1.3916553519276795
-98.12477253120527 -88.92093693383289 -1.4004169702160472
-98.49374953309079 -88.77252341631197 -1.4096101574668252
-98.8886206144777 -88.84119234702852 -1.418793753364688
-99.19784000692184 -88.71583036898774 -1.4268287020930601
-99.54045325596974 -88.66236362358134 -1.4356120293188386
-99.92473618247041 -88.71324458851261 -1.445001249505891
-100.23906632475587 -88.53482351846961 -1.4535422479249378
-100.52704569508289 -88.34751653463204 -1.4619846713822278
-100.97295283851989 -88.71418296342173 -1.471945021614176
-101.36356667200252 -88.92297686983864 -1.4810001194820939
-101.62588914443404 -89.14797279064044 -1.4868502527844512
-102.614052301485 -88.32963651822125 -1.497907198194798
-102.96845872415554 -88.25063277936064 -1.5069272421473021
-103.60091640800951 -88.1584440563226 -1.5170404126640684
-103.98340683041899 -88.19495348490187 -1.5221965187203044
-107.36606015646502 -87.49912704123733 -1.6085838221012196
-107.2920399566626 -87.44948074437751 -1.6125904377304772
-107.406359989973 -87.45077627022232 -1.621183789134839
-107.70444107618412 -87.5841301242273 -1.6294599912312664
-108.0071224174603 -87.54294895718542 -1.6353756068532255
-107.92709369611154 -88.03374295838886 -1.6516814205009243
-108.16350639144154 -87.66570137780803 -1.6585044754585683
-108.36894149117664 -87.26791953286315 -1.6652881027540893
-108.69459619182801 -87.1412878328969 -1.6738382429932444
-108.99799589325414 -87.02028624084394 -1.6820303497210163
-109.35170919890032 -87.08852340503711 -1.6908321746264345
-109.74155166185494 -87.13473682921565 -1.7005330663662273
-110.04524599211095 -86.97958334702722 -1.70906217072439
-110.38724604307023 -86.98011611116719 -1.718050079289837
-110.67779880170745 -86.86805334649233 -1.7264623605158755
-110.98395268363043 -86.62154762574309 -1.7359491602098323
-111.29449923417327 -86.7856307940894 -1.744204490322565
-111.58362441376832 -86.78437483533455 -1.7527411506312398
-111.87287618593612 -86.6763562546293 -1.761942983299138
-112.0792053173631 -86.80462967757057 -1.7681763317739405
-103.83117002264018 -88.27558089454789 -1.498295131184623
-104.5422476067879 -88.00882628640565 -1.526674434935504
-105.13177646095484 -88.07898952643463 -1.5349769415684207
-105.21140418330081 -88.06034855608198 -1.543210568234615
-105.51441324301521 -87.93853677544769 -1.5522742455679954
-106.45175548112557 -87.89286791668209 -1.5603772748803497
-106.97205931776115 -87.85553712374858 -1.57053079799898
-106.62123434544941 -87.74746645160454 -1.5783438673263779
-106.83633098809729 -87.68870087293016 -1.587202502867761
-107.49744393444078 -87.73375609795849 -1.5961516531126119
-107.58660260621679 -87.55132146722939 -1.6043453857632837
-109.04754890398742 -87.57952636795488 -1.6320092281428171
-109.31767783761752 -87.42405020355253 -1.6368731969354133
-105.25788595156216 -88.2102817154346 -1.4989277075004628
-110.7194203667686 -87.48527791336905 -1.6359494432199422
-110.63125810245822 -87.11882449334914 -1.6374244136208222
-94.89949489406196 -87.60836812310558 -1.3344320170465958
-95.34812063299175 -87.51346844766982 -1.3423754780624182
-95.79421872427392 -87.59003941445596 -1.351822687261879
-95.9942832261789 -86.91873845745809 -1.3573173389749285
-98.7574421271696 -86.34615765572602 -1.4313391074807151
-99.153302573247 -86.75315359865384 -1.4395359240035894
-99.39959969783 -87.05354238805745 -1.4455501374810589
-108.32545603700281 -86.0889011445802 -1.6747377719378125
-108.45228913457268 -85.70621842053878 -1.679456458653157
-108.56771701816619 -85.18099196774602 -1.6858622037800188
-108.74644326166788 -84.78510656634509 -1.6907869770138995
-111.0204404192272 -84.30546436894545 -1.7468961875500482
-111.3948449889151 -84.58062578715888 -1.756186634737178
-111.74990980051594 -84.88620955697212 -1.76539104394232
-112.05683540532141 -84.89963733366709 -1.775043280657233
-112.27453609770748 -84.8371102515538 -1.7831631346480892
-112.22903155825028 -84.70753611981942 -1.7875967467906528
-96.12404246602692 -88.18277162677948 -1.357711323845773
-96.2642695879946 -87.69757759989949 -1.361559988747633
-96.62096604668534 -87.39664397930713 -1.3703202891581425
-96.9918077521589 -87.42501216547124 -1.378737413728772
-97.29866866856142 -87.21232991764819 -1.38668962209497
-97.69919051111826 -87.29506436290131 -1.3959615462804005
-98.01660611762978 -87.08715575179073 -1.4046367223063165
-98.38709937481488 -87.09257289439394 -1.4139243874987704
-98.68046833826907 -86.97647675053905 -1.4218231620336905
-99.01155402354382 -86.9421859224324 -1.430246961394871
-99.5048854001705 -87.2120210227576 -1.4414963776962977
-99.87344070126191 -87.42531654130647 -1.4497338483924598
-100.30589516728621 -87.3638083273913 -1.4608647753793658
-102.32430864627037 -86.69317208670672 -1.493143988213339
-102.59961277816069 -86.51527734261245 -1.5026820400216065
-103.14770520535376 -86.49617110390804 -1.5116056641336304
-103.70383169662992 -86.62032195691697 -1.517440491908298
-104.64341869912663 -85.60194458349604 -1.5421611765416015
-106.00837253397654 -85.46817581774962 -1.5773392565501763
-106.96480302752184 -85.8379681559504 -1.6085052923697272
-107.05633607515355 -85.9089036231813 -1.6173268644503769
-107.44414303566248 -85.79328270052989 -1.6243513564766539
-107.59772337820057 -85.87998810388672 -1.630827771155226
-107.9772433980614 -86.24249842938809 -1.6608708603643747
-108.49495958044787 -86.2251453802773 -1.6741075069830986
-108.6672826540472 -85.97804242177723 -1.6787850081151807
-108.9526714428356 -85.67901394875227 -1.6872839049097745
-109.22027984084616 -85.36477883184887 -1.6956532608945856
-109.54163482472765 -85.3204913777666 -1.7040277279252436
-109.92552462103164 -85.38477459461625 -1.7134617370979348
-110.23033675019113 -85.16152198595742 -1.7222627144316889
-110.54174150693756 -85.12009622224946 -1.7306035551394814
-110.89276373143056 -85.12797877638474 -1.739989163297726
-111.19600294429075 -85.16496131499096 -1.7481160416043844
-111.56697803594706 -85.45328029360815 -1.7576027135889936
-103.57299285052402 -86.66305630372594 -1.4941303387603495
-104.21382195791699 -86.43199542571097 -1.521574749073591
-104.853324080107 -86.4323907193161 -1.530037501945978
-104.93090178133886 -86.40711013908 -1.5385570593013667
-105.05306322585629 -86.45633515375633 -1.5476073873349212
-105.90067991144097 -86.3048444748649 -1.5566980943178867
-106.40078071415525 -86.15788770660737 -1.5658517114357307
-106.11467439444338 -86.08603023532453 -1.5739861316702959
-106.59781930492898 -86.09002176614797 -1.5836532698878907
-107.24925132068928 -86.01142143728022 -1.5919918003183249
-107.32907464293298 -85.911947066448 -1.6006370649080002
-107.11503266186442 -85.6046216211946 -1.603964086949635
-108.68051358159971 -85.76311935205491 -1.6270771133561337
-109.04217359087336 -85.82220101934249 -1.6327660981773482
-105.16379235044491 -86.56510568110073 -1.494772351170959
-110.54392121364567 -85.79937804399258 -1.6311907287563552
-110.68377175557687 -85.83022477801848 -1.6345592682342538
-105.96305233864746 -86.36215373534334 -1.4940269949631342
-111.38388676061312 -85.31243457393616 -1.6322648422894557
-111.41584845412692 -85.38503379533103 -1.6338221006719884
-94.55214823509266 -85.98318816896548 -1.3294413177108166
-95.01616204331557 -85.9994406886277 -1.3381875583537062
-95.42572911074677 -85.88934757802562 -1.3471991573629665
-95.7842001866417 -85.7721599847808 -1.3556530257420039
-96.13889638538458 -85.6267661728266 -1.3645201266294464
-96.29096265956416 -85.40821179019567 -1.3731379656148885
-96.6485447886863 -85.29969678497767 -1.3805570565032568
-97.12519933654784 -85.2619059143798 -1.3906534966482038
-97.43643153553448 -85.14888405658101 -1.3995980897202251
-97.78844602683436 -85.32093991528602 -1.4081858123547542
-98.21685337880383 -85.7220555907338 -1.4188695121341663
-98.47974874991141 -86.08726746679234 -1.426104909490801
-108.92616054968958 -84.4372209749437 -1.6951183473165397
-109.12564806358753 -83.87457630708698 -1.7018727029687244
-109.3256778036115 -83.66253798069599 -1.7077050470793176
-109.75013539906705 -83.59489886519728 -1.7175282642543466
-110.07647012744904 -83.51607652692833 -1.7260562025203137
-110.21269642291762 -83.51494318744606 -1.7338830357324422
-110.78308481884854 -83.42473920661945 -1.7444397476559148
-111.07985813458207 -83.42679888741941 -1.7522431167629484
-111.38326265015823 -83.25055519740425 -1.7613255402403178
-111.66142235981046 -83.20997811616238 -1.7698331211252454
-111.90531181371905 -83.11594354601722 -1.7782458728239583
-111.92285601183339 -82.85139513004029 -1.7835434951611688
-96.36766571072806 -86.4080972033356 -1.3672383079125312
-96.66582443966237 -86.24568827770662 -1.375036673624595
-97.00811618156908 -86.13504692838671 -1.383736320900021
-97.34399180468219 -86.05490588177122 -1.3924731864419564
-97.71873542876644 -86.0562679969654 -1.4019214324936626
-98.04406498082703 -85.90408640800712 -1.4108203765181715
-98.31067318436791 -85.88435450772904 -1.4175480239747347
-98.62976839113365 -86.04076461144862 -1.424968261246319
-102.02895794026526 -84.95851137494695 -1.4890342545168918
-102.2368962460336 -84.90592271367815 -1.4985170350238153
-102.82060955358804 -84.92586658932203 -1.5072143854868212
-103.35238052521372 -84.61659069483225 -1.5115079199938033
-104.49087184051994 -84.47503975083457 -1.5416288845283224
-105.54740655268259 -84.10877542939292 -1.5697038892871855
-105.78434986128374 -84.57672779484184 -1.5744796641883954
-106.65064785826432 -84.3535764283231 -1.6056104702392366
-106.68218314390319 -84.2614442360061 -1.6133177142396766
-107.04641960540056 -84.12535864236136 -1.6195792077711357
-107.21866026104962 -84.14989811072743 -1.626201733035412
-109.10063541791618 -84.50221369423443 -1.6965977798857519
-109.32896228957854 -84.38712710006473 -1.7030347710642515
-109.56701093113819 -84.36074814457405 -1.7092037829351319
-109.98198638773115 -84.31258190680131 -1.7199171165280687
-110.25257245766616 -84.32708557332643 -1.7267109163568577
-110.58447427247185 -84.30553798918834 -1.735376059566692
-103.31376967430919 -84.9234398624863 -1.48990778376782
-103.93889263938647 -84.8340842526342 -1.5169576497273338
-104.58485290912628 -84.80481770071364 -1.5255697000734398
-104.62492448677413 -84.59783911528154 -1.5339666215633792
-104.6777470083014 -84.87319442151639 -1.5433983559517461
-105.33718025889709 -84.53610486303961 -1.5510964966742418
-105.84847477021853 -84.53896839220545 -1.5608392956378268
-105.67207690114577 -84.57757233275242 -1.5670174551910105
-106.28231631411049 -84.38274472156016 -1.5789321318829737
-106.96199366002064 -84.46091463043157 -1.5871851929436187
-107.10379058975933 -84.35720492009618 -1.596319238410088
-106.86553072446935 -84.02632819184824 -1.600283302545323
-108.29981638039044 -84.16144319726168 -1.6226583661055014
-108.51536488344162 -83.97925071914489 -1.627648403771989
-104.7963309625701 -85.0120968692634 -1.4905191067590986
-110.05725835482359 -84.07378974632259 -1.6259680957400862
-110.34500699976039 -84.17461586103374 -1.6304688407349655
-106.03241889828966 -84.79608897893884 -1.4903487934685031
-111.29162971925587 -83.92863949315368 -1.6283857940035291
-111.59652984392972 -83.82765049793868 -1.6306492254510034
-93.88115767507789 -84.38722660701562 -1.3201796027061892
-94.10793359753745 -84.27171231194093 -1.3233054431307187
-94.6475431780112 -84.36625600600631 -1.3336984983186684
-95.03364719860369 -84.23250003731295 -1.342767006923402
-95.35963181622164 -84.14809673547902 -1.3510347212748408
-95.6943770129964 -84.05169027127715 -1.3600269624821726
-95.80382446356137 -83.96714281051673 -1.3694610962747054
-96.25970352828988 -84.07144707036186 -1.3774972239248076
-96.79829633956315 -84.32170842157447 -1.3874767594435173
-97.11013682491779 -84.58211347330666 -1.3952420085429789
-97.40487945732448 -84.06100879718338 -1.4031332524141047
-108.84894754150358 -82.3889208868589 -1.6997213571641772
-108.86797496462 -82.74722433950103 -1.70159440112197
-109.48706914166388 -82.65320032752871 -1.7168057177391747
-109.72051282551001 -82.42068220812129 -1.723550738434078
-109.6666014519983 -81.99720485737484 -1.7296994356218374
-110.2013233285847 -81.66431398807293 -1.7381516672177733
-110.69018014826399 -81.84521426297192 -1.7489743125262265
-110.98878695992076 -81.71705865918497 -1.7570391407258004
-111.26887363520679 -81.54963734559871 -1.765262447802982
-111.56577052275901 -81.53020609857242 -1.774101101353416
-111.63970444717198 -81.49573404104677 -1.7801307757492861
-101.74916671867636 -83.311965977171 -1.4852294116093745
-101.85570666100035 -83.28590572867057 -1.494165220762802
-102.51471089908377 -83.24548223222854 -1.5029051560496938
-103.97567114036706 -82.3664595605294 -1.5318390342815091
-104.12499614371983 -82.98130019474866 -1.5377054940175556
-104.33515533615628 -82.47004536245473 -1.5420867721735154
-105.20823006963231 -82.88463220378412 -1.565533818735789
-105.45186226332608 -82.74815550646642 -1.570307960766846
-106.35268241986839 -82.63507758078336 -1.600344961636909
-106.24383135688721 -82.49847088545971 -1.6078401199323942
-106.66470073394429 -82.45499977463871 -1.6151335774314421
-106.9367162054443 -82.43259928464266 -1.6217060684127678
-103.07047916668243 -83.37068637794206 -1.485581166790303
-102.98995357999767 -82.44066966667036 -1.5053127486915485
-103.67997438570657 -83.28972029104507 -1.5126872502876454
-104.28939880926566 -83.07718046528905 -1.5212619802079337
-104.31678481091993 -83.04876601080878 -1.5298641470554177
-104.89520077418615 -82.95843007339705 -1.5474835675204903
-105.26039109458061 -82.82458751440973 -1.5558065913909647
-105.25925301464778 -83.12034362026763 -1.561967428090493
-105.95797263056848 -82.78391478580829 -1.5746572640230991
-106.69429417458755 -82.74280635056067 -1.5836136343896632
-106.82209761744463 -82.61882306707697 -1.5917219049142248
-106.65306752354697 -82.67078846896942 -1.5971268674670305
-108.1042182140971 -82.4403363519366 -1.6183905919738433
-108.34643637318294 -82.52054694394471 -1.6239521327859923
-104.57507391781051 -83.30915201138245 -1.4857921796077773
-109.72557072813579 -82.39999644766822 -1.621417914226039
-110.08996170263259 -82.39401819489373 -1.626015843109782
-106.2894044163499 -82.79622613923597 -1.4838002391641094
-106.06154919355778 -83.24220533944762 -1.486663142823503
-111.34844748574156 -82.41908646043831 -1.6246442783888166
-111.51441283444207 -82.55842825805671 -1.6280020096958454
-106.75025837501727 -82.64086473669987 -1.4837459316889872
-107.11891630771645 -82.90547622402988 -1.485772508970578
-112.32196882862883 -82.02575428630831 -1.6255819115472705
-112.57174960135916 -82.29332084098768 -1.6280416954629158
-93.59421856618235 -83.20552414223872 -1.3170468319307633
-93.78339620581264 -82.57308320706423 -1.3196609013697174
-94.20940382060002 -82.45368177616209 -1.3291230695141383
-94.56788475051002 -82.56796689103156 -1.3378076074467928
-94.89170573606253 -82.6166051343374 -1.3465799942571082
-95.24133376631664 -82.76791594676953 -1.3556636618340114
-95.64510557233326 -83.03599934447729 -1.3653486183721706
-95.86119658120654 -82.75692752667068 -1.370483739565233
-102.19105012175662 -80.45883944365445 -1.555523778334772
-109.52885915669123 -80.9619131927827 -1.7250174871419317
-110.01194786696779 -80.7876469204299 -1.7386740292395475
-110.20944005367932 -80.46963102956067 -1.7450522460099214
-110.49285886513981 -80.03433985987641 -1.7527854831020167
-110.82069312064993 -79.92927013143344 -1.7604505064144704
-111.2133836378958 -80.02321930364064 -1.7700896981080152
-111.32046067210247 -80.06431779735291 -1.7755890107562675
-101.34336778004106 -81.66653053463932 -1.4806983281723594
-101.43003587240995 -81.61100285455429 -1.4893520001856275
-102.18970850763691 -81.63243266373152 -1.4983692023325406
-103.70853274210643 -81.23326367604365 -1.528465065336325
-103.67104681366618 -81.36921496868317 -1.5328873077262415
-104.13122515349075 -81.1277226512468 -1.5404036012335998
-104.63312466722677 -80.81756690496465 -1.5533781383622502
-104.72699420938457 -81.21801103358084 -1.5603139954998264
-104.96967969665744 -81.13789093588707 -1.5656406987016882
-106.08590786949708 -80.91695332722281 -1.5963043105978287
-105.8423170079561 -80.89263609721405 -1.6035736976073274
-106.38072984851134 -80.85667893707864 -1.6111551343193984
-106.58288961265747 -80.85573951390245 -1.6174026042245861
-102.76580259543175 -81.64661169788587 -1.4810956457976197
-102.82090189123964 -81.60398538142402 -1.5027014636151808
-103.3831170216328 -81.51980307407435 -1.5080050778118317
-103.98799013365021 -81.38584659913836 -1.5173403709528965
-103.94869201132401 -81.41239866971489 -1.5254412807516136
-104.50538079228426 -81.26767451073661 -1.5450139781043701
-104.79059845745554 -81.39749075392636 -1.5515482598680796
-105.62616561300901 -81.05183552938718 -1.5704594426244955
-106.36962888202498 -81.04460023668557 -1.5792210213739981
-106.5480023674102 -81.03550122987318 -1.5873725102729437
-106.4031259383858 -80.95243355243976 -1.5926188401556287
-107.82321866896842 -80.88573816398187 -1.6143908948805061
-108.04383088771841 -80.6833736558905 -1.6191316509380527
-104.19987500071342 -81.6096114737065 -1.4810334990966154
-109.47578807016541 -80.9374360760728 -1.6176042601216207
-109.77963192137243 -80.86799766543533 -1.6220510644491561
-105.88280875210475 -81.62661283055084 -1.480296896272325
-105.8532385815557 -81.7328820413725 -1.4835131182562469
-111.14788671050664 -80.86952443167044 -1.6204518738512015
-111.3955397854083 -80.74249558533441 -1.6239358699886561
-107.05469198388515 -81.57874222014226 -1.481108542732881
-107.35021204088997 -81.71063411407376 -1.4839398980003795
-112.28214836385108 -80.78978547256963 -1.6222992467618218
-112.90521457588882 -80.76599864372325 -1.624802476682188
-108.28012184979016 -80.99935072686165 -1.4809007254891016
-108.26800010091858 -81.11746717934753 -1.4821937155529372
-113.74465079111215 -80.33889970324122 -1.6249041207129924
-93.40461411530003 -80.98765365080615 -1.315298392769622
-93.8023452598862 -80.9387700711654 -1.3249209116224236
-94.09024520289005 -80.93234284919214 -1.3331894604638306
-94.1544411290242 -80.8575246932058 -1.3377794062915862
-102.00373773095225 -79.47668366451114 -1.552853152795341
-110.08932196297326 -78.46732113992536 -1.7490990329952725
-110.3916335067188 -78.27190076573217 -1.7562459136925221
-110.79869723153702 -78.26497260113344 -1.7654977211382201
-110.89775400490464 -78.3529928869336 -1.7709384241247
-101.01345556921065 -80.02020840882716 -1.4757826682578352
-101.03434802380377 -80.09222478208322 -1.4845028375961455
-101.8892247245933 -79.92299659296235 -1.4936737974222087
-103.34500962416908 -79.64628502173488 -1.5234137651480344
-103.24494064497463 -79.78814340309893 -1.5288603379772854
-103.78388348581917 -79.71542632896524 -1.5375826172023068
-104.24651987683364 -79.65669794894984 -1.5470807402981437
-104.31620269022304 -79.76795867689405 -1.5557218965623374
-104.62721597195628 -79.38988400945884 -1.561720254740523
-105.76186450123156 -79.34602635076538 -1.5930047838390724
-105.48162009415492 -79.3617924683848 -1.5990618964222394
-106.09158874717065 -79.12944383243645 -1.6068457035468564
-106.22208796412733 -79.17973105273981 -1.61285087830492
-102.39877284118184 -80.04711261365438 -1.476497645719218
-102.49848164144956 -79.83835535293905 -1.4979350352020733
-103.08143939168227 -79.89747655395898 -1.5036499026854822
-103.66193004997174 -79.8680343862643 -1.5129903376574287
-103.60954369673722 -79.83159651529395 -1.5203263752694995
-105.39992171406932 -79.52262123317276 -1.5675453140331879
-105.97317087128373 -79.3886563210322 -1.5741877599507135
-106.24399057101374 -79.44750197258149 -1.5835574513936967
-106.06938056503539 -79.18841308216287 -1.5879221887260098
-107.50063116604153 -79.21701577580126 -1.6100462826857762
-107.84405209112634 -79.11046209968441 -1.615071797217145
-104.51445204582825 -79.52029436627258 -1.4737785268401806
-103.99334277839328 -80.0668217295057 -1.4772684158418203
-109.23556411359073 -79.13792473348647 -1.6130345100170553
-109.33553456529852 -79.20645682985221 -1.6175031363938048
-105.35718607805018 -80.1315925773924 -1.4758856455260607
-105.51044472596615 -79.99794668602355 -1.4795424503166983
-110.87097352978233 -79.14232555119086 -1.6158192010144812
-111.03116080218672 -79.22494848393403 -1.6200379703169057
-107.02424026562983 -80.04776646665485 -1.4768224283869273
-107.06741774189031 -79.840307362092 -1.4794806920881842
-111.92383175526543 -79.01915976672639 -1.6173470102137084
-112.68113385362028 -79.12313584744723 -1.6206707178693358
-108.36980012536523 -79.97125830506427 -1.4777592571063445
-108.47542288675693 -79.85404766306927 -1.4795391958032467
-113.928855507581 -79.06347809179502 -1.6221536721156584
-109.2624296109076 -79.33318046523948 -1.477288165813957
-114.99886660023382 -78.36139127285952 -1.6216268587077711
-93.08263040210544 -79.49520367867257 -1.3119360032324754
-93.35592210906898 -79.32774894543718 -1.320012302974617
-93.63302051080598 -79.31611957289883 -1.328346626497966
-93.80729059863008 -79.41558091953767 -1.3338824816817874
-101.84068302459502 -77.93179768769329 -1.5487149023686566
-109.74763609039705 -77.23067744019109 -1.7455018568787055
-110.05076173645458 -76.90487644300455 -1.7532510275479267
-110.35829789980853 -76.63856477981003 -1.7607564648061842
