# .PCD v0.7 - Point Cloud Data file format
VERSION 0.7
FIELDS x y z
SIZE 4 4 4
TYPE F F F
COUNT 1 1 1
WIDTH 818
HEIGHT 1
VIEWPOINT 0 0 0 1 0 0 0
POINTS 818
DATA ascii
-107.018146910365 -140.84962478682417 -1.5216391503735354
-106.84220313991156 -140.25408636596097 -1.516899155611985
-99.7170303172818 -140.85729842154564 -1.5066900746869714
-106.52679152199293 -140.92649360144938 -1.5120736783511777
-106.62947177260092 -140.08834836728093 -1.5123337691025371
-99.86767239004982 -140.90118740985758 -1.5002372923578726
-100.3618686181385 -141.00373207980314 -1.496754692235826
-105.38354153124729 -140.90713513729136 -1.5026203012382107
-101.05248882984665 -140.81772852955606 -1.4934588145311583
-102.00737439326143 -140.91134975898808 -1.4931259876605518
-103.61618381858531 -140.94841653881565 -1.4934477839512572
-104.50069444847784 -140.56932674548864 -1.4949572676204472
-99.99554721879176 -139.1547853011298 -1.5168085514501042
-106.99115116174 -139.34686790736302 -1.523800165590506
-106.99039573547192 -138.7323224665476 -1.5224842918173016
-99.6922164145374 -139.2802114670436 -1.5107231339054488
-106.86020623413731 -139.35349529733438 -1.5202852018798232
-106.73190607376871 -139.1284695119303 -1.5157407273657835
-99.36927215386197 -139.36981077040156 -1.5019897755080167
-106.28506937829317 -139.34021872178116 -1.506938864036069
-106.48956183611135 -139.1600366176489 -1.5098740314130368
-99.48947188019943 -139.26194528845838 -1.4947076105719717
-99.82628582169349 -139.219192823708 -1.491161228454024
-105.17181611693071 -139.2824814455525 -1.49767607555128
-100.55224628750041 -139.29473892516216 -1.4885705202899273
-101.74538276405126 -139.27104238975 -1.4871975849237935
-103.21258339971745 -139.46844145590774 -1.4883985758740645
-104.31108504695754 -139.3284916899983 -1.4924942795979883
-99.4834252564981 -137.5312702973131 -1.511938490543727
-106.93365556854192 -137.56177081627666 -1.5191696116569875
-99.37575129947156 -137.627055348603 -1.5068171577950982
-106.715310573137 -138.15076147238022 -1.518033620757872
-106.51906621358071 -137.41979564985505 -1.5125198296095734
-98.99024037286352 -137.57112749289223 -1.4976968402553035
-105.96772337868296 -137.8699239784512 -1.501220978333727
-106.19537792290629 -137.49114443313005 -1.50451249126538
-99.06593764663901 -137.58216362496324 -1.4901722549695144
-99.47625977208 -137.7585077070484 -1.4864499112924316
-105.21892906722137 -137.65626062843444 -1.4945557780666248
-99.98081663486548 -137.92804307503212 -1.4847918810160998
-100.87764639106678 -138.42891576811343 -1.4841907978380486
-103.57946419374096 -138.21030826645708 -1.4867590864196951
-104.21294667195531 -137.6418482758321 -1.4885869330141204
-98.87936485367392 -135.77378326994364 -1.5073743661842764
-106.93711024519199 -136.0265773209721 -1.5154930302047955
-98.98543753813901 -135.934112296997 -1.5021272035202635
-106.36333028642252 -135.8388090190698 -1.5088825675262358
-98.69328205753291 -136.0658918507459 -1.4941257951978013
-105.91910359470795 -135.94922100956927 -1.4995656039118346
-98.72555314677514 -135.99155625084933 -1.4850297091213827
-105.13325923997988 -136.00136432911296 -1.4907632207224575
-105.51948257461721 -135.4428516204743 -1.4934755778779147
-99.08160868482683 -135.91072825838194 -1.4799583726413628
-104.31431428056642 -136.14560488468615 -1.4852845015534497
-98.13178203764758 -133.94011035636703 -1.5026922588008589
-98.4754410520242 -134.67508969133692 -1.5041157899539677
-106.91950270531068 -134.52808561054886 -1.511197833070659
-98.59758540586849 -134.3817007250214 -1.4977685410878534
-106.24617062159653 -134.2251250760233 -1.504564271571628
-98.3442328713816 -134.2847533156759 -1.4893408042369725
-105.69329506185235 -134.24486719051183 -1.4956092480972751
-98.36213882083565 -134.374341621853 -1.4801970315576094
-104.8907383812792 -134.46927319176692 -1.486099585201759
-105.370910834297 -134.30438955080422 -1.4906243417038973
-98.51633576818102 -134.15508450109724 -1.47504159160433
-98.6031630836213 -134.17703784069948 -1.4743507087706313
-104.24471123862625 -134.47941863736082 -1.4809330474252898
-97.6332779077154 -132.6132993111582 -1.4982799770256414
-107.07639731770661 -132.4925570460928 -1.5064563411554301
-97.67012188154492 -132.28504607023325 -1.4953421771139592
-98.11352836564859 -132.71685378145784 -1.4929530344389743
-106.17208235722624 -132.53056781258013 -1.5003541217221599
-98.02099275639483 -132.63415247634447 -1.4850823744921056
-99.45164322896133 -131.9084483976167 -1.4800638071054064
-101.50642655538009 -131.9225221985643 -1.4848768066126967
-102.74021608462775 -131.91180451051395 -1.4844762524443356
-103.64654931776904 -131.92921348434695 -1.484451605145165
-105.42208894730074 -132.74080034890883 -1.4907958954095735
-97.92881638922245 -132.57095318042212 -1.4756836814349306
-99.38807391929738 -131.92405007186747 -1.4751279485916693
-100.9083324269212 -131.926498935236 -1.476539318643655
-102.40664920925374 -131.94456946721382 -1.4771820409511907
-103.975512861999 -132.31990138759463 -1.4796434959445997
-105.01369332937739 -132.5628182797189 -1.4847759412422408
-98.14900492437012 -132.65924550048834 -1.4701285724215405
-99.01888545211335 -131.93168680952203 -1.4672759912497415
-100.69772148097499 -132.50439527321362 -1.469143414932589
-102.03508605946183 -132.56046189391301 -1.4699868484472838
-103.4554433409299 -132.2545360555656 -1.4736458020877055
-100.55383061144705 -132.29531719821782 -1.4638616695471727
-101.83426818997538 -132.32999212683796 -1.4649945059730443
-96.86051707107413 -130.8219301333757 -1.4931108904651977
-107.10304235685818 -131.45938210807103 -1.5034585249668704
-107.26101837807794 -130.69654686730792 -1.5023136759643396
-97.0603228442902 -130.4747529622925 -1.4889329636136086
-97.66960332729312 -130.91811990549346 -1.4866361358809081
-106.11828196201245 -131.03032343868256 -1.4962015445355892
-107.03815783094635 -130.75967740669617 -1.5009276842004204
-97.67643230984791 -131.01721431127876 -1.4802830598067116
-99.3176845127141 -131.51847884746337 -1.4794402414129042
-101.5911358711652 -131.81592101802576 -1.4854997359309439
-103.01184268349985 -131.5659376572798 -1.4832133333400535
-103.71849628416305 -131.47797945083462 -1.483925884119393
-105.21636316630057 -130.98792701843243 -1.4869791867391677
-97.60028094927753 -131.08833666642934 -1.4721802959593022
-98.98863548998452 -131.45400758369414 -1.4740603435541995
-100.68079013723978 -131.80429371999674 -1.4756955915561176
-102.36028503561126 -131.74236309878344 -1.4769754893059241
-103.5964505192787 -131.32439488843102 -1.4772603457322164
-104.75375402966306 -131.03986713412888 -1.480147952985115
-97.81629512772811 -131.39191336194858 -1.4667580816524455
-99.00641345883584 -131.6607906571605 -1.466374660175979
-100.21601863413359 -131.77311574399877 -1.4673560808522998
-101.96911332207328 -131.61900623149788 -1.4677659238566771
-103.37733911655246 -131.34794113515923 -1.4709448522559756
-100.62158963699042 -131.83189960879469 -1.4625646737852642
-101.7960832675834 -131.4440366823685 -1.4623538224286297
-96.18049319535919 -129.34528783924657 -1.488924870311713
-107.40889316667459 -129.32195873106826 -1.4990423279021465
-96.580918188859 -129.33333433715723 -1.4853681251675557
-97.27296997032649 -129.42731327354537 -1.4816072159151124
-106.06253310783477 -129.59186876386784 -1.4920590131410656
-106.93006368824528 -129.25374508988654 -1.4957598928150675
-97.37089733732577 -129.49212601047975 -1.4763145668838058
-105.01448819831907 -129.43992252375375 -1.4831867974546262
-97.2446862146959 -129.39671273939584 -1.4674215898527834
-104.05544671059371 -129.4689428397305 -1.470410079095476
-104.4812246749671 -129.3988412201149 -1.4753786574532513
-97.34596774977646 -129.44633763889732 -1.4616017727946238
-103.75097697295264 -129.453147290361 -1.4674659758562765
-95.29467455178252 -127.41465789449141 -1.483331016899163
-95.69948344494735 -128.26078609390734 -1.4856073668617114
-107.56337087127673 -127.76293443679813 -1.495215623939228
-95.28987857768514 -127.19571476367886 -1.481638620249618
-96.0515521817908 -127.67047057912329 -1.479449166751957
-96.7589263731774 -127.75478877809059 -1.476297623349816
-105.77996603214868 -127.76952721614697 -1.4857013566998685
-106.83562716749367 -127.60256032373508 -1.4904172912483455
-96.99668499519801 -127.75789309287325 -1.4713235486970897
-104.75872890555654 -127.75490311319335 -1.4783001065886312
-96.92144507550584 -127.81384283160996 -1.4633155691565969
-103.83974785128767 -128.1907661833867 -1.4664940527432453
-104.16660965719856 -127.79017730651287 -1.4701154745138056
-96.96456502102652 -127.69770913394565 -1.4565548097496746
-103.44010265058358 -127.83668350450034 -1.4623181539555252
-94.7216898702467 -126.10057576814732 -1.4792042169882063
-107.67667369687337 -126.43990944707421 -1.4917322074047183
-107.79465816950984 -125.6035266963201 -1.4899407341540563
-94.93178740430925 -126.05883381998741 -1.477254103246175
-95.62041809571514 -126.14235446046183 -1.473930056836042
-105.60978310129418 -126.21335619549671 -1.480727927224615
-106.8086714482776 -126.02023511113742 -1.4857559336641875
-96.055550837387 -125.52802257573501 -1.4692825866423527
-96.62476883576949 -126.10340008260752 -1.4674298533904946
-104.63480966331386 -126.07372404175362 -1.474388952027024
-96.5932028097173 -126.13478045923854 -1.4589191930454495
-103.89650220962884 -126.10530825666368 -1.4654852897807946
-96.67843482836 -126.07673966360055 -1.4511663812102118
-103.13919173158664 -126.09925533020916 -1.4572157722986678
-103.48227279605156 -126.0977489913629 -1.4602757166601092
-94.05496902301041 -124.64774039977404 -1.4750269490075183
-107.94916768171801 -124.38696293572323 -1.487196380843338
-94.3312269021182 -124.4495482710816 -1.4720271954767385
-95.078765376424 -124.32443965987962 -1.4679873859708217
-105.46307094651428 -124.66434475301372 -1.4760692082867601
-106.52171889314094 -124.35303207142563 -1.4798819807888046
-107.54446153025066 -124.08955774666984 -1.4840077022214178
-95.74532529200381 -124.3510332925289 -1.465624995876301
-96.25913151322794 -124.40513258890981 -1.462660932877239
-104.52349215590647 -124.44418866101458 -1.470611627450803
-96.28417816130495 -124.53443135459293 -1.4546963879896728
-103.64984290029878 -124.46758182266305 -1.4612175553363032
-96.33718644177823 -124.44558885033253 -1.4471883146910092
-102.73235043953932 -124.47045170148026 -1.4517503294787006
-103.16974477472982 -124.29423380113533 -1.4550743529565333
-92.8371064864262 -122.03016046143708 -1.4674933202450462
-93.22203182740952 -122.8509842513742 -1.4699306041163342
-108.13214782245856 -122.63995934386149 -1.4829490940038599
-93.72437409420473 -122.5560010540162 -1.4658073259576108
-94.69651090764214 -122.76838469453342 -1.4632480693393304
-106.2680416740968 -122.63213154148985 -1.4744633370072544
-107.52229015053102 -122.6754805212907 -1.4799036615171768
-95.32992661387598 -122.58798606408311 -1.4603980568149046
-95.95823731107122 -122.75578140167002 -1.4573091586640263
-104.25135073326709 -122.75393111884317 -1.4659957597256956
-105.25110627021625 -122.69993544543297 -1.4705477627090127
-95.95128803749974 -122.71283735955954 -1.4495068562691722
-103.326800761441 -122.80410725222913 -1.456223739230531
-96.07287058463103 -122.8266940316175 -1.442744369253079
-96.36925214943051 -122.7337982753389 -1.4392536639140865
-102.36236716546802 -122.79220771517416 -1.446828713505174
-102.8807702796308 -122.7110948823204 -1.4507885078223712
-92.4333400404719 -121.11328295844926 -1.4648666720038557
-108.28381887055494 -121.14569397648276 -1.4792619131319509
-108.43577998862452 -120.50981189471626 -1.4783376625432036
-92.39286517403843 -120.57992414585237 -1.462008144415073
-93.29198047664525 -121.22939585852507 -1.4616875060578398
-94.28827265900149 -121.10771354897591 -1.4582560222622258
-105.99149659124076 -121.09256431368816 -1.4696232086736907
-107.37604651470971 -120.96508139246117 -1.474630435238485
-94.92779472422808 -121.04420592543119 -1.4559914164713041
-95.59341130870374 -120.99915086859552 -1.4521552414306893
-104.0267652282595 -121.10425651752058 -1.4615882426298152
-105.11957506926933 -121.2128521521182 -1.4665813955704445
-95.69266473376261 -121.22453067101884 -1.4452483029591878
-103.00203218132462 -121.01888323654718 -1.4513242278817804
-95.83473591565448 -121.23882409640701 -1.4382032667696885
-96.16250606471509 -121.21283984934846 -1.434885774065312
-102.07119747176992 -121.20786851212054 -1.4425229959459087
-102.56850936555585 -121.1206336923255 -1.4463020970196632
-91.750769367232 -119.59606659331676 -1.4605077735303507
-108.54013298887011 -119.36203116294405 -1.4755115092860167
-92.05386087617057 -119.50660248458706 -1.4584818760526974
-93.03075633936616 -119.49347882287341 -1.4555422002335097
-93.925785845762 -119.6251158942292 -1.4538999966338741
-105.7463563335009 -119.46037084115265 -1.4647646028764403
-107.18304951421851 -119.45140600437912 -1.469836744010374
-108.19412031493482 -119.5467568091351 -1.4740141173195456
-94.5434341913066 -119.61872714943073 -1.4520420597108914
-95.30306933132734 -119.47518477681925 -1.4481720052370524
-103.79326778534059 -119.49106228984944 -1.457088196869824
-104.87176314465191 -119.44364164509238 -1.4615937159763217
-95.4176386213743 -119.57230372400073 -1.4412357258577884
-102.79045659124101 -119.63986350569417 -1.4481033542525086
-95.54605770732492 -119.60184874282137 -1.4340703101823764
-95.87320764730906 -119.46983373657838 -1.43017539527977
-101.5901444593264 -119.49164577283942 -1.4369390865978762
-102.363793356827 -119.80664994256034 -1.4432503094202191
-90.91421258516625 -117.73519567857937 -1.4552503278791578
-108.65222449361062 -117.76704361247862 -1.4713742048979033
-91.35584040451714 -117.65556464079432 -1.452910715881652
-92.62021559328213 -117.88726010294688 -1.450399946975895
-93.46213234791807 -118.12698780681886 -1.4495578479152293
-105.64133941018238 -117.85116514658752 -1.4603151976238435
-106.75721788932135 -117.80467943861224 -1.46389602926043
-108.17416175233595 -117.67563127649014 -1.4688279436963123
-93.99226670612849 -117.83863827684671 -1.4471160978676667
-94.94660672677166 -117.75326808527556 -1.443723459974679
-103.50922804410139 -117.77332428795339 -1.4523056695574876
-104.83330238592961 -117.88034484203821 -1.4577747243925192
-95.14419511850511 -117.81016748545935 -1.4374376142751921
-102.4936051787979 -117.955353778523 -1.4439307584233607
-95.24885367701863 -117.90939539399538 -1.4305770065614312
-95.63661021681588 -117.87856421083697 -1.4259780929074968
-101.30340654053693 -117.88999258290902 -1.4329089990602455
-102.05760093030499 -118.22609586139579 -1.4390672786699605
-96.03840155671394 -117.87728946037106 -1.422059548942058
-99.34889017550296 -117.13861091865765 -1.4179018044867404
-100.50599727618105 -117.56871784941313 -1.4280695291022865
-96.3311871489781 -117.5216549498294 -1.4154896050449737
-97.20295374351639 -117.59155640325565 -1.4138882166390818
-98.61016014305926 -117.61373188621873 -1.4158550622361294
-90.05781913326202 -115.78580402387531 -1.4496575020379674
-90.46584466891107 -116.69918097074978 -1.4522760029700863
-108.79733572239633 -116.11923347554826 -1.467393246784129
-90.0933168083182 -115.5717396661616 -1.4482591379568177
-90.8841753953764 -116.18280546321999 -1.4482780458580917
-92.19845886294435 -116.25244989648623 -1.4453198055375645
-92.88002532346624 -115.449655990188 -1.442225105663832
-105.39723379492509 -115.88760245387469 -1.454934466552297
-106.43269347322268 -116.25650744916754 -1.4587974826017989
-107.99844815647762 -116.01641043183376 -1.4636782982457992
-92.87581508336841 -115.97807817649624 -1.4431031931000302
-93.63683812450073 -116.23269361946278 -1.4425292450571348
-94.75463092632195 -116.20654317263671 -1.4391895504688363
-103.15648903550328 -116.09828664714969 -1.4476815745827387
-104.55701078668297 -116.19469038018315 -1.452812233172034
-94.92958451458205 -116.29120097352616 -1.4327917337994738
-102.16357371247544 -116.23163942327297 -1.4395432487844482
-95.016010632412 -116.18087722739276 -1.4258979812490715
-95.39057680340903 -116.38377789353521 -1.422331006914066
-101.11395864686233 -116.27467892581639 -1.4296038582457344
-101.64693962592285 -115.90159524015411 -1.4336105343582164
-95.85998915922757 -116.02480611343648 -1.415632900843691
-96.20362845304598 -115.61344027304709 -1.4111732289302332
-99.1207187072425 -116.01999865660935 -1.415431854887401
-99.79097947096176 -115.66852889816519 -1.4200616300144955
-96.97790617362489 -116.48267422729197 -1.4115746948843957
-98.2723959458011 -116.39729767062391 -1.41282708864369
-89.56650873271195 -114.54833056553085 -1.4457941195126252
-108.89239847498966 -114.96518713275043 -1.464589676532259
-108.99205479965437 -114.29143796303063 -1.4632964709631862
-89.72482989279436 -114.48010949194537 -1.4448006423208535
-90.59099425193693 -114.54950988901965 -1.4427779953902204
-92.04037637394512 -114.57801729310515 -1.4416178020961607
-93.12838913616312 -114.54865122245344 -1.440823450315742
-104.7966550264641 -114.65049038687302 -1.45191706170435
-106.24746391689605 -114.40401625128807 -1.454283816344691
-107.96174131431941 -114.61715251349143 -1.4598611070075427
-108.77575227100336 -113.93858957504365 -1.4611153190667774
-92.4425046992312 -113.96461427729307 -1.437749349449989
-93.6269007591497 -114.55820432119381 -1.439286600307358
-94.52174202855245 -114.7140473488864 -1.4361831984813076
-102.88953481579536 -114.55290726554395 -1.4443690222194363
-104.15869733983172 -114.31568421698466 -1.4483317475795812
-94.70871942764805 -114.72032540288777 -1.4281999482848426
-101.35559111188442 -114.29213940727226 -1.4298123973507395
-101.85353466481207 -114.70646042570283 -1.4354081890404704
-94.81021882206095 -114.70032158458974 -1.422109106832856
-95.13274316164106 -114.60544680810307 -1.4182026655137434
-100.8314640245269 -114.75623410630187 -1.4258806779660822
-95.65459071135487 -114.58507912254065 -1.412288012321081
-96.10885601987421 -114.38272592508417 -1.4084522474637455
-98.80475456440942 -114.5951063237353 -1.4122662312892358
-99.60979557283005 -114.66438378801627 -1.4177224877924448
-96.82229570157726 -114.69000549352215 -1.4077071716080471
-97.88566252790088 -114.79229975013166 -1.409043144930431
-88.88471000856651 -112.9643820337304 -1.4416226449508798
-108.98386884385803 -112.89899890516662 -1.4592887674933026
-89.18522314059608 -112.84657361245047 -1.4397979435147057
-90.22122396176394 -112.92179102806496 -1.43797230431377
-91.66917240036598 -112.91014120949426 -1.4366465016901564
-92.59754694717962 -112.70572392835025 -1.435859181948467
-104.5779052237366 -112.75028012503608 -1.446986183660821
-105.89235606518547 -112.86119459876136 -1.449816221974946
-107.77269099595676 -112.80261404761437 -1.4546228963648111
-108.72642699777651 -112.40507692735535 -1.4568700090264175
-92.27972666287874 -112.88796780819489 -1.4348298405633082
-93.26135618073313 -112.96657649227969 -1.434525999222936
-94.26888445566257 -112.79132874565998 -1.4311073255211406
-102.51674221330755 -112.91794893621156 -1.439680579864899
-103.8523198831273 -112.83902114816213 -1.444242595587018
-94.41656179827652 -112.92034132262593 -1.4246210333019578
-101.10215241835863 -112.96924521346348 -1.426640657382763
-101.53973104536989 -112.93015840806711 -1.4310032187886683
-94.57729340270281 -113.00194787009255 -1.4184266513924586
-94.96927193428981 -113.05613064243887 -1.4144565599642718
-100.30140785962351 -112.91627422053475 -1.420406333979437
-95.43086771780821 -112.96356383495225 -1.4092872753383408
-96.0643557577724 -112.972633130273 -1.4052753158344478
-98.24510212997352 -112.88639973553163 -1.4077654624619846
-99.29520470180728 -113.02297105445186 -1.4139244032416372
-96.77839755868904 -113.09067479574978 -1.4043688269905248
-97.36055521867763 -112.94297378563358 -1.4047235461829688
-88.17629395568572 -111.13926313770881 -1.4362317238753235
-109.15490914874914 -111.34017776244497 -1.4560378130983134
-88.8480345414251 -111.3315666949558 -1.434969608780691
-90.00753266903114 -111.33850627277604 -1.433299436469642
-91.0492499479867 -111.3712699934742 -1.4321841057844122
-104.31007234285309 -111.1422999912488 -1.4428489090220518
-105.57014905205375 -111.18740202252584 -1.4451830379686363
-107.34600294491298 -111.14431865181632 -1.4493495225187472
-108.55061415276862 -111.18913213368205 -1.4530752250037744
-92.74606206489909 -111.1199329316469 -1.4290253439807388
-94.1264585385973 -111.32205877041655 -1.426427948846556
-102.26273290922263 -111.41954616271185 -1.4359116692804605
-103.62802087128432 -111.13699592244583 -1.44015457691849
-94.21926960510778 -111.2844748700795 -1.4199872818194341
-100.78858420840919 -111.32550749731297 -1.4227408823648768
-101.224086728991 -111.27401079574756 -1.4269915327000748
-94.38640522577461 -111.51909029497205 -1.414942540768837
-94.77734331626401 -111.38518275344636 -1.4106904964854818
-99.91442478154241 -111.41199908348578 -1.4164200161161336
-95.2890167367644 -111.47370075945985 -1.4057529476598645
-96.02093725307263 -111.32587037657284 -1.4018696955811494
-97.74449055257867 -111.26460741744012 -1.40376020472358
-98.97843459502762 -111.27672904409329 -1.4101947724346429
-96.83369848072675 -111.89289715546053 -1.4020576354727754
-97.2147349918298 -112.03945258103926 -1.4028988804671838
-87.29527937619666 -108.96248999591755 -1.4302184929284256
-87.68385324519139 -109.93456169329373 -1.4329214707307967
-109.20568395224255 -109.53863767896924 -1.4514027582194893
-88.12872062669071 -109.56824310075687 -1.4301878451580792
-89.5922356294387 -109.64715080466176 -1.428587846673531
-91.35050217439202 -109.59212183322488 -1.4277454901714688
-92.12525892083801 -109.31280125028219 -1.426723593164346
-104.07207563284702 -109.58055642883188 -1.4386219260572521
-105.24539232314352 -109.618985020824 -1.4408443641800097
-106.9912439708952 -109.48853712756674 -1.4444547551131772
-108.45168782047983 -109.60707024677586 -1.448759390857902
-91.8877080355856 -110.19849068529686 -1.4277288673197925
-92.68919943450223 -109.62695558119113 -1.4262538882367342
-93.63416803539927 -109.63643067084293 -1.4244699531097536
-101.96654523497605 -109.55321193196939 -1.4316647944773973
-103.4038034696171 -109.7242300939052 -1.4363376770279892
-94.01651824541764 -109.77337113749905 -1.4164476035702613
-100.52901529001734 -109.65077201221204 -1.419399199359372
-101.02112476186346 -109.71770327373407 -1.4242241986983075
-94.13541544718198 -109.61219443577494 -1.4110885661930228
-94.55568746407593 -109.692731096908 -1.4070512309631484
-99.5462090581706 -109.7178636947036 -1.4121426263005876
-95.08864316903433 -109.72528408623992 -1.4022156516714772
-95.99650593239703 -109.76295496320364 -1.3984917682521492
-97.66864755003054 -109.71165870748686 -1.4014829526631167
-98.703632414023 -109.95369589133931 -1.4071090272820794
-86.89403474643213 -107.82023588620268 -1.4270928693260556
-109.27078839114887 -108.4384865723706 -1.4489557099958799
-109.31160801712117 -107.44418585804034 -1.4467646690067109
-87.09837180682142 -108.03223633255425 -1.426856170038768
-87.79320192528853 -107.97112092133801 -1.425412434192513
-89.32039363804166 -108.04656032111048 -1.4241327606148992
-90.60469713807728 -107.96111754677828 -1.4227083633757507
-104.86881275679065 -108.01218446563274 -1.4357662501911976
-106.62535442807659 -107.88947451793013 -1.439798575646403
-108.33278812301239 -107.91756643072377 -1.444228704561341
-109.14300930365096 -107.35331310186702 -1.445476574863384
-91.42894479235609 -108.35533105373617 -1.422913060172794
-92.26439861974569 -107.90517607535443 -1.4207159115299666
-93.45013005688968 -107.98572833587424 -1.4190810052797813
-101.37967998730363 -107.97668232690472 -1.4257512178183769
-103.16022099488389 -107.96508455227563 -1.4312512109194429
-104.10834564148084 -107.76478259465546 -1.4332809807123132
-93.84487222430255 -108.03698614860184 -1.411591933762087
-93.90588430597757 -107.74777857602407 -1.406733917986588
-100.18788748196712 -107.80133739369872 -1.4151653639373425
-100.59512820982829 -107.85617012723769 -1.4195923712084015
-94.02083247025703 -108.70540259812445 -1.4090877891415319
-94.37083479936236 -108.00359427500284 -1.4030730835048453
-99.15611434236641 -107.9955060234432 -1.4077663888942278
-94.90178998916433 -108.24816862255337 -1.399133705137421
-95.63229560210006 -108.07868405692832 -1.3954346213171358
-97.61471341556462 -108.17791606404316 -1.3991589550445058
-98.29721606455236 -108.13413698779661 -1.4025691399288018
-86.37503834360632 -106.2902315507891 -1.4227366947589797
-109.29006988899559 -106.35296824985734 -1.443920841556519
-86.53031466291863 -106.12479832670473 -1.4213354917804
-87.49375298033043 -106.32470293162467 -1.4205755978300645
-89.055534816328 -106.356753846154 -1.4194183026154195
-90.28571106119028 -106.40935641823684 -1.4185705396637718
-104.78674847040067 -106.2553453006469 -1.431582215038765
-106.3061378153849 -106.23645371578338 -1.4351445252932729
-108.2487231665493 -106.42758383918145 -1.4403469063567218
-109.00222033510468 -106.00583464449257 -1.4415618995006396
-91.14608451784206 -106.45616424658589 -1.4178709869875104
-91.82916703141954 -106.34519544928368 -1.4170996866394128
-93.36970233067538 -106.37950794619807 -1.4144648978427372
-101.18116390386317 -106.32784148870556 -1.4223096129503963
-103.01676559786563 -106.46604879540622 -1.4277117584708743
-103.97561807948249 -106.85994839902304 -1.4309030338994324
-93.61810918545505 -106.32804512325657 -1.4077419344653128
-93.70725100885542 -106.28447058413536 -1.4037767993480839
-99.83034885065501 -106.29890732862658 -1.4109836630931634
-100.33351994401045 -106.36050156893006 -1.4162247795484972
-94.16203904772381 -106.4184610616387 -1.3995303773537662
-97.86014068792358 -105.90301176544119 -1.3973343427149434
-98.72062910003554 -106.45525880367204 -1.403381596852548
-94.72279796513477 -106.66773289598873 -1.3954742650340526
-95.37142271954109 -106.42175778685848 -1.3921483655915416
-97.02164600892526 -106.39353231928033 -1.3940867764565916
-85.74109835584788 -104.48541611429556 -1.4178571046101474
-109.28259022067526 -104.6184429433043 -1.4395705103155092
-86.13185630051896 -104.68230873156458 -1.4171357220361496
-87.20742309214468 -104.66577709927572 -1.4158491924445893
-88.67974683883308 -104.70361915864318 -1.4149270754734191
-89.91945601186299 -104.6335233530113 -1.413875013369633
-104.42004688238629 -104.57480669266283 -1.4269122002040235
-106.05291223232499 -104.61916728087482 -1.430770843420909
-107.85303039334927 -104.72525365860741 -1.4352272984608718
-108.89537867304617 -104.43830976550741 -1.4373686411660738
-90.7676394911575 -104.46422321830681 -1.412796528721166
-91.65316285274321 -104.6741515385965 -1.4126866856545242
-93.17147558736569 -104.71708195587169 -1.4103601094432225
-100.75251370520857 -104.72425382423091 -1.4177111680001246
-102.71560051260103 -104.49220455720585 -1.4227825127070752
-103.412599263056 -103.91844812607546 -1.4231392731535053
-93.40167051163661 -104.72722982084906 -1.4044851635257105
-93.47040661170232 -104.28523177733479 -1.399172247791225
-99.52789790877375 -104.48133927867408 -1.4071882368461113
-100.01887403929668 -104.78161836944899 -1.4122643589006292
-94.03933829194887 -104.67305136969358 -1.394842358076495
-94.42036249057495 -103.96604919477423 -1.3892931686181589
-97.5949996068588 -104.68939807379206 -1.3943692582388043
-98.57371526360643 -104.7698565758063 -1.4005185087806746
-95.1155001603396 -104.73156758283513 -1.3887213229173245
-96.76344169380639 -104.69968969207162 -1.3906410054596536
-85.35622656306556 -103.11070522577222 -1.4139120081685266
-109.16720399737349 -103.25068823652363 -1.4358645563548271
-85.83285146316899 -102.98667960781808 -1.4122713149406658
-86.99747813526093 -103.04446296615801 -1.411445572768205
-88.33422177718987 -103.08172198718599 -1.4106713057961235
-89.85033020971854 -103.0393990387771 -1.4096457789941996
-103.06576413824386 -102.26305963056393 -1.4188291931216614
-103.93180942256402 -103.00964990720017 -1.422396241614363
-105.55778180962334 -102.81798242916915 -1.4255926306943592
-107.43313367859741 -102.92298659803568 -1.4300157393573105
-108.62901118009765 -102.94018919010601 -1.4330603700757378
-90.48934174940464 -102.79002114038319 -1.4085716498862388
-91.32654510094423 -103.01952419796716 -1.4087030232736364
-92.86583975101249 -102.97440150761491 -1.4061087459761974
-100.62673647669212 -103.0379670707206 -1.4143721278649435
-102.28064430275856 -102.92170127320736 -1.4185231860595413
-93.19893528574217 -103.25898736912978 -1.4016093630780802
-93.32681923550655 -103.00871605385694 -1.3961747407405367
-99.22978501220514 -103.06215769510816 -1.4036333232956748
-99.73135305830661 -103.05317079399249 -1.4085709344479818
-93.82942816360867 -103.0656430050623 -1.39128739544114
-94.33168778403635 -102.89263295160407 -1.3869269818983887
-97.3229417572507 -103.25984442067136 -1.3911960785444641
-98.0282199728584 -103.0686458105116 -1.3952422290220912
-95.03063217682828 -103.2554737917983 -1.3855491092324972
-96.36702257257721 -103.08572679989865 -1.3868296517359644
-85.00641581699583 -101.83371883811333 -1.4104723238317405
-109.06315381476648 -101.22092342145447 -1.4311382028971467
-85.36895983140339 -101.34710953892048 -1.4079726951162108
-86.73116093124085 -101.43156467805775 -1.4072155001007483
-88.1655117065543 -101.32242776759772 -1.406004041385452
-89.56913893816703 -101.35632476983251 -1.4054250304025249
-102.91271499571887 -101.47962151838486 -1.4168592791839953
-103.72751079288408 -101.35347335211019 -1.4183958801795746
-105.35699044797555 -101.24403235565858 -1.4216490537601163
-107.04757975405202 -101.38319620243098 -1.4256374591498358
-108.48967469594467 -101.18207849953778 -1.4285962232834035
-90.32809018008044 -101.67761880925445 -1.4058137269621636
-90.9777862084216 -101.39972204119465 -1.4048355425770311
-92.5744760718543 -101.34249397488884 -1.4025721605434613
-100.21920561196025 -101.38866125828818 -1.4096932215483715
-102.07745952535267 -101.29059777629075 -1.4147176846741827
-92.97684818728392 -101.53451323963112 -1.397308007840473
-93.09696812347688 -101.41073837725227 -1.3933074318300431
-98.88242386699606 -101.3289183524103 -1.3995416729116288
-99.54553299503529 -102.18188501205286 -1.4062788829536648
-93.64224437154287 -101.51132044633658 -1.387766080537128
-94.19924644365328 -101.3429744598939 -1.3835698914750192
-96.83657471126078 -101.5728075616006 -1.3867623013489494
-97.69428861569078 -101.34609635323135 -1.391217074272287
-94.82823694290701 -101.32847356813735 -1.3819299101743752
-95.96286459471735 -101.5237981116369 -1.3833996629189391
-83.63459408209044 -99.40956335501151 -1.4046308259799092
-84.38404978953234 -100.07229996013125 -1.4062650216415784
-109.1982278441758 -100.10183568726927 -1.4285862160523934
-109.88160427510986 -99.4229085542806 -1.4282202599941136
-83.9269674235432 -99.11637509947164 -1.4022449634696756
-84.95450775695295 -99.68209427841907 -1.4035423033083307
-86.40538632407997 -99.66048090182916 -1.4025917190980797
-87.75245914390736 -99.65820589828088 -1.4018125456883912
-89.26784265594215 -99.8561753648744 -1.401708466590845
-90.08126518631784 -99.72916561281414 -1.4010134084815542
-102.41155202181116 -99.57950126436215 -1.4118149598068401
-103.56950170268622 -99.71250889660983 -1.4145489450395254
-105.05982629129956 -99.67903489894442 -1.4175714054168762
-106.88708818857418 -99.75921023324321 -1.4216009464495383
-108.39906439856742 -99.44271843972766 -1.4242750199904683
-109.31162273261393 -98.97089482059684 -1.4249100859926185
-90.95963021236877 -99.73947426957488 -1.4006900803278597
-92.31705624839188 -99.72456669480749 -1.3987157244821966
-99.0779477816883 -99.54034137013782 -1.4002396473172567
-100.06669175515155 -99.6933266846092 -1.4064245058954716
-101.71390089038434 -99.79771219929269 -1.410823599703274
-92.74135933500527 -99.82707929782191 -1.393803425148411
-92.90517919104315 -99.72318960433898 -1.3893260512613839
-98.53896961526064 -99.7541706808683 -1.3955028448474116
-93.43983781477048 -99.81819891368065 -1.3839082472317223
-94.15891049238634 -99.80891124454122 -1.3801061695748083
-96.33855309197087 -99.7246420773588 -1.3822864830347976
-97.45422731099896 -99.96074474113736 -1.3881661262756937
-94.91428077553816 -100.00757951526288 -1.3793295063635718
-95.56823645619612 -100.21889754741945 -1.3804975454450181
-81.73541228193997 -97.78664748208608 -1.3997284633963991
-82.70274651469254 -98.35039506336511 -1.400909995247024
-110.31678402744451 -98.16031543159102 -1.424955801419955
-111.31139287669978 -97.72384479982968 -1.4258915290012486
-83.34160774850031 -97.89391990075134 -1.3985710117593921
-84.59909360721632 -98.13008786221822 -1.3993928845153973
-85.99783514188408 -98.07835997298096 -1.3985036977975431
-87.44385682226017 -98.06292259187781 -1.3977739442656056
-88.97027180012208 -98.10052528227817 -1.397360198118191
-89.96153879930002 -97.91940614495145 -1.3965106286413413
-102.05744118261649 -98.20611209751263 -1.4081855634111993
-103.25673680957078 -98.06385441663241 -1.4103647305568985
-104.69145528489638 -98.03707330550579 -1.4132143658024798
-106.47817274110254 -98.0611552252135 -1.416895929888254
-108.24196188383826 -98.00475344495169 -1.4204719374716919
-109.42087815210203 -97.90699485726626 -1.4222914053350002
-90.75463447481476 -97.99863173681071 -1.3963948679774438
-92.07747224716108 -98.07170842485543 -1.394876757838372
-92.44200659428866 -97.6465411593175 -1.3892669623320526
-98.76559002827935 -97.9087878042479 -1.3963143011152137
-99.75051104475979 -98.12756679126699 -1.4024980602190666
-101.17318940250895 -97.97573927240047 -1.4058608793367529
-92.69827134999068 -98.0221527779891 -1.3856349230688905
-98.12111090437294 -98.05582640522152 -1.3908739971029014
-93.26606409070045 -98.28029082650347 -1.3803732813306926
-94.22413571369424 -98.24988088539459 -1.376896053016012
-95.8970910225333 -98.10318871312364 -1.3786448676864724
-97.07337658958424 -98.24818745240984 -1.3839282257252352
-79.93054065666836 -96.2360857523361 -1.3942852090823707
-81.17221101640972 -96.43259046635391 -1.3940965323024723
-82.20011288665026 -96.86122539171231 -1.3953275877493816
-110.24550000536237 -96.64860717739468 -1.4202429960312442
-111.15760011332054 -96.40909309601015 -1.4211926544076439
-112.68142542270527 -96.25705146877901 -1.4243771465591601
-82.66604889687486 -96.32253112112625 -1.3939859986211778
-84.15988059682279 -96.47994590290021 -1.3947473874981777
-85.71587069766531 -96.46203356690074 -1.3940803935676247
-87.23437030718094 -96.43141716613728 -1.3935934590020769
-88.71492389347982 -96.37616768875357 -1.3931000707107992
-89.8129977260219 -96.4482698890287 -1.3929054453571534
-101.62708550102101 -96.30956624429497 -1.4033387123930186
-103.04658687965467 -96.39205801606413 -1.4063817030549786
-104.6366230224449 -96.40315790178141 -1.4094858698843122
-106.16341520195624 -96.33051976715849 -1.4123119038049825
-107.82026525469594 -96.374642625983 -1.415704482376769
-109.3818120186765 -96.21062324174954 -1.4178813281106155
-90.578620098068 -96.41807473040159 -1.3926225142164759
-91.76180060373301 -96.5118760552554 -1.391841057568706
-92.2627199419999 -96.16607530977906 -1.3864065837561064
-98.46529395184952 -96.31625795609968 -1.3928084965461345
-99.45492378879545 -96.36631425290567 -1.3986362309547362
-100.8632903655768 -96.36309456222297 -1.4019445396706942
-92.52017034516359 -96.34836891924121 -1.381944149144517
-97.79857318280467 -96.55335545707322 -1.3873135056654209
-93.05267219631456 -96.47407214196392 -1.3766070650791646
-93.84712655330665 -96.53532888222244 -1.374021738965147
-95.4952721547504 -96.45500606777522 -1.3753136085912632
-96.76277248095586 -96.56580330408357 -1.3803845041090075
-77.92615809139932 -94.53644868303901 -1.388804990453936
-79.25555553507672 -94.83052529839847 -1.3890985693794067
-80.69020855715223 -94.73971573874816 -1.3889784131836218
-110.95908535331044 -94.82845442792478 -1.4166448417128026
-112.3967188800178 -94.6993284540754 -1.418461986735525
-113.94522471975506 -94.67306134027481 -1.4215255249475514
-114.95495006404941 -94.01722781152371 -1.4221752294363248
-81.44113464474016 -94.60724836922347 -1.3888781408972448
-82.35414700768483 -94.74597946375702 -1.389576074661935
-83.89596002510865 -94.77372275306323 -1.3900105323358303
-85.39116991960043 -94.81344230923465 -1.3898536245524518
-87.04615011280718 -94.73009200316278 -1.3893680664895558
-88.43599066240891 -94.71714619001801 -1.3891393838120458
-89.77918090405198 -94.996050595261 -1.389537400532373
-101.29415274094738 -94.72480692301029 -1.3995787902276433
-102.729813582638 -94.70973085479307 -1.4022522524489391
-104.24519507610749 -94.76588896514451 -1.405207350055473
-105.96212712965634 -94.86251365115604 -1.4086582598262478
-107.63592557410463 -94.68129125220875 -1.4114253212634558
-109.22007102502594 -94.85006219297159 -1.4142152659438019
-110.13513656519164 -94.41569327870728 -1.4144175232662308
-90.55686131912323 -94.86781514404451 -1.3890751334501397
-91.62270062450722 -94.85889808415722 -1.3880277235093135
-92.08933901831344 -94.67319637163527 -1.3832945278942632
-98.1798811522494 -94.6965702998851 -1.3894739430849516
-99.29257794449487 -94.93574239660508 -1.3957339341503014
-100.4199796305356 -95.0490172486123 -1.398519689889509
-92.38052423846455 -94.89515761798165 -1.3784855741181172
-97.28623053051466 -94.74840292229786 -1.3821611835309566
-92.85831597588302 -95.12820365656809 -1.3740766097457318
-93.8061684151201 -94.98835331596496 -1.3712814287977646
-95.46368788905517 -94.9300774748643 -1.3732814947507157
-96.37755230398419 -95.00964213619754 -1.376583579276379
-76.02837521697407 -92.93217959047547 -1.383690678002636
-77.50527943661928 -93.196647891569 -1.3838247635528123
-78.9799101013294 -93.17111202456049 -1.3840969258210738
-80.14557829317224 -93.31072978431644 -1.3848923174534546
-111.02508400631993 -93.02540815119806 -1.4121845216919562
-112.05013925671501 -93.12356919387334 -1.4139020721823534
-113.75777227370119 -93.04936593899136 -1.4162206045304109
-115.29067797450378 -93.07055261682267 -1.4193905674794685
-116.42326640638292 -92.3248377294929 -1.420081310571114
-80.91837001976464 -93.16298050887629 -1.3847884911490749
-82.14618881302378 -93.12428147521653 -1.3853200798354348
-83.5249776173287 -93.06515572838347 -1.3854808584306977
-85.08169124259524 -93.14412565985509 -1.385739135758147
-86.70942558808129 -93.20852870175395 -1.3856769048063118
-88.14411590440272 -93.0847200425085 -1.3852413150213476
-89.73338046431958 -93.16681592222251 -1.3853313591941308
-90.55715658132198 -92.83856382991341 -1.3844354233508085
-99.68270604201756 -92.85579411649184 -1.3928165056472566
-100.68812074935948 -93.09441419005597 -1.3951697596130561
-102.3112449685961 -92.94670182757378 -1.3977928480609858
-103.93080483111733 -93.07706520026251 -1.4010265047404182
-105.55805483152237 -93.09610895988494 -1.404099840422473
-107.32077835210575 -92.91189507529892 -1.4066407951638282
-108.97774552751262 -93.044561549106 -1.4095356388167108
-110.11931853989168 -93.07631151853732 -1.411063314251448
-91.26486763919625 -93.19632194394762 -1.384833582803691
-91.92225628478268 -93.16794601401604 -1.3799880780991234
-97.8518437902964 -93.02966647056259 -1.3856998614838492
-98.86855899808833 -93.13372242458749 -1.3915171889125846
-92.3441304459179 -93.27910509014495 -1.3731240526338575
-96.8332168321839 -93.14689072556583 -1.3776263169798162
-92.78420707918215 -93.3724953184635 -1.3699436888981176
-93.51028413703337 -93.13141571513584 -1.3682164070069103
-95.09630913247122 -93.23423836610327 -1.3700385443802812
-96.06250177093037 -93.6706872281364 -1.3734332295575402
-73.10893606203666 -90.75029610580465 -1.3772498371900792
-74.22055988367944 -91.32374465043226 -1.378471515001202
-75.47236771277466 -91.43617236566133 -1.378126985552363
-77.04018798543308 -91.3618133918048 -1.378489793315071
-78.65262358946129 -91.5683864832705 -1.3796613391167807
-79.90610746603141 -91.25928705740368 -1.3794956526254145
-110.64945486100414 -91.45634775803757 -1.4079084668124524
-111.85569794124183 -91.41893554308265 -1.409373199902106
-113.50586535932663 -91.43276944050709 -1.4117148581603582
-114.96963524082027 -91.32292374559881 -1.4135022790071698
-116.67107214384865 -91.37024799576946 -1.4168298985627505
-117.70047932333793 -90.89979088570017 -1.4178822554684969
-80.54908718957884 -91.58201667021896 -1.3806461528605618
-81.83812365553419 -91.4729217884872 -1.3811088210552476
-83.07066618642956 -91.51895296851839 -1.379136475320603
-84.88175294858802 -91.44115375990168 -1.3815704533485327
-86.26027612672023 -91.6263997646943 -1.3818685011209333
-87.85798488087707 -91.49743331827133 -1.3814260037014756
-89.44045305773734 -91.51389452506722 -1.381408646054525
-90.5878996516473 -91.22145653391509 -1.3806641228052785
-99.15786120150742 -91.36855259357112 -1.3888390616395097
-100.3733509252481 -91.36739673032297 -1.3910032536687833
-102.17181514507031 -91.34401165389357 -1.3941565598299481
-103.74452862900124 -91.36738586712056 -1.3970673071789335
-105.38633752204225 -91.44222034928802 -1.40024694127457
-107.13618749614126 -91.47101019454078 -1.400977589009032
-108.53471040300846 -91.3146832132089 -1.4049567834988892
-109.7923414294616 -91.42907905763084 -1.40678155130822
-82.46787963167601 -90.86788115438485 -1.3718137162731279
-91.32429650420146 -91.78917330277167 -1.381602922841312
-91.72487373835791 -91.64091360774414 -1.3774437541702715
-97.5033397537442 -91.40920736912128 -1.3817464948741276
-98.42850632137535 -91.55657868218589 -1.387633387238897
-106.96053396979552 -90.95055448059657 -1.3942741243394032
-92.12475474416507 -91.52328071257021 -1.3699312622297837
-92.6434702465201 -91.04490009845136 -1.36519399374929
-95.56412714538335 -91.5731203570175 -1.3688682364262468
-96.45144024180235 -91.54356334202515 -1.3735828572694868
-93.3833610516708 -91.65248374735172 -1.3656919577754336
-94.65022744035055 -91.58336456683054 -1.3666806811171264
-71.21357143761006 -89.15979473609514 -1.3721558708414054
-72.29566371610896 -89.84467043626988 -1.373640455634328
-73.72043531652096 -89.86963429675372 -1.3732083177034848
-75.31831976482651 -89.89122523498287 -1.373879826152583
-76.83645048276078 -89.90853952372152 -1.3745439556792003
-78.39516979398005 -89.83360355707205 -1.3751573514337305
-79.73421024500396 -89.78572950333141 -1.3757962390410736
-110.11484593909285 -89.7624637859885 -1.4033005086171924
-111.58882150739416 -89.7448155051001 -1.405086124722352
-113.11710057192698 -89.70484936088533 -1.4069178699559872
-114.64069200014646 -89.69303104026118 -1.4089553159747068
-116.44243766710731 -89.67916433144417 -1.41143984349431
-117.97603824880571 -89.78459585073719 -1.4146291383825265
-119.12834885069088 -89.18825577962279 -1.4154195498949365
-80.45970004852012 -89.82974903699235 -1.3763145000427153
-81.67996146439025 -89.92237464580398 -1.3772699325420255
-82.7707199163434 -89.86406127380032 -1.3745789961098542
-84.5844117813083 -89.87509033596092 -1.3777981300159272
-86.13877493833199 -89.74232248133627 -1.3773448014565912
-87.70731551649658 -89.81029954971373 -1.37743329766801
-89.15921837386396 -89.88129803462594 -1.3775561507659606
-90.55701611086486 -89.78535577318743 -1.3773409916137775
-98.6655697608274 -89.80617978296354 -1.384792590785385
-100.18201984022242 -89.77612913052208 -1.3873783070767363
-101.79594666093855 -89.77070533730105 -1.390232606046539
-103.48756206802834 -89.92373244743723 -1.3935774461514523
-105.126589371519 -89.80228241633056 -1.3963137614867036
-106.74817584006381 -89.75091831562473 -1.3956649702532815
-108.24175420256752 -89.69874217139736 -1.4009008436276813
-109.4091008373069 -89.81122389193726 -1.4025422801093925
-82.51234324104747 -89.92890978680741 -1.3694454588234564
-91.27353149559524 -90.2578690422862 -1.3780922339684951
-91.5466334608124 -89.7061667789426 -1.3725587445909242
-97.13269342317035 -89.7838264972103 -1.3778086066287487
-97.87314554812576 -89.91230653455 -1.383289619948134
-106.69857349360325 -89.97194653702427 -1.391524143479185
-91.91115184936973 -89.95692934591882 -1.3671582943251577
-92.93144911292491 -89.87231067848711 -1.3630766133577596
-94.783089276921 -89.91708439708052 -1.364824364010411
-96.12549967026133 -89.80916420085843 -1.3700189889426038
-93.63596438110768 -90.64676263110553 -1.3641175468039197
-94.07520077428731 -90.4718706701081 -1.3642115920071751
-69.33298346667743 -87.56052999497808 -1.3671778325224968
-70.43343717283629 -88.16940772738421 -1.3685165224509226
-71.92410445475409 -88.17774527512405 -1.3679428467549375
-73.40325531529632 -88.15777500395347 -1.3684884555690087
-74.96316506916097 -88.25910662055198 -1.3694350194420988
-76.59343124215587 -88.35735874777889 -1.3705362961893361
-78.1543251658052 -88.2415605230393 -1.3711341722278165
-79.6816926826867 -88.07493559238581 -1.3716762311812236
-80.92410458770038 -87.77694279305449 -1.3718704073824006
-107.10185384962361 -87.36021126448034 -1.3945136449247142
-108.00110116560595 -87.72244881603403 -1.396299455367212
-109.65236640026593 -88.02025569251121 -1.3987836744381603
-111.27071713192872 -88.24512934784873 -1.4012069940684857
-112.86159230427921 -88.07695403006389 -1.4027776268045133
-114.46685395862364 -88.0701847673966 -1.4047837723988739
-116.13042073046998 -88.08089193250989 -1.4070258217861071
-117.65385806149803 -88.09465208995347 -1.4091465086746833
-119.3203976668425 -88.14447595562297 -1.412250116089411
-120.45956405063122 -87.65997415308941 -1.4134054825257083
-81.34677398272878 -88.45709664776865 -1.3736990895702106
-82.48628552159872 -88.20714171068903 -1.370019045220455
-84.25690145513107 -88.1928436487806 -1.3738104495852457
-85.8375774924858 -88.31002097504592 -1.3739738133929575
-87.4367299416207 -88.26293774429968 -1.3738511928417398
-88.83078068343093 -88.2691182348373 -1.3738811541098486
-90.37042065513182 -88.20253713597072 -1.3738335171134042
-97.29203291538532 -87.40575820686047 -1.3773799842294687
-98.25449204926876 -88.11402914954236 -1.380776950957694
-99.83184221527657 -88.1921518150364 -1.3836118371476307
-101.67062139449868 -88.11566238618025 -1.3866439572934577
-103.21182864816343 -88.12805059952646 -1.3893713201971303
-104.87464036264728 -88.01244036883834 -1.3921373495072067
-106.56373275879805 -88.13594424965453 -1.3917596864044701
-107.89750860227709 -88.37078470228366 -1.3976013088234711
-82.45682506018179 -88.83044592435968 -1.366793940718272
-91.40882444304414 -88.129618584831 -1.3689286085696084
-96.73485265718925 -88.26426166141974 -1.3738170928143874
-106.22398621233216 -88.222446447842 -1.387001762745792
-91.8050724695456 -88.12675294710823 -1.3630035153961153
-92.89238244394056 -88.23340083676753 -1.360645524122625
-94.38724853006207 -88.33878749977666 -1.3620719366888092
-95.77959654766038 -88.19947517622242 -1.366569624135062
-67.57321046456308 -86.04916019220904 -1.362004537771933
-68.51217344335241 -86.52198147854982 -1.3630570218505058
-70.20385799754106 -86.54039791049553 -1.3628567782506942
-71.5908928785067 -86.60500538316721 -1.3636361795252965
-73.15207571008443 -86.58759920269141 -1.3643072246114867
-74.65841326154751 -86.70085444430218 -1.36539381631702
-76.32170996340611 -86.54575552309525 -1.3659603034020664
-77.8541709294113 -86.49322754489906 -1.3668188765657505
-79.37282052315732 -86.55179819338322 -1.3680168527956662
-81.00825868546693 -86.6846031674075 -1.3694765324061595
-81.80074094140551 -86.3538783029623 -1.3693215822707894
-106.89869267253188 -86.52985211720153 -1.3924760844216841
-107.74667185290193 -86.4579016508202 -1.3932616956801807
-109.42597433179114 -86.47571914361032 -1.3951514443841073
-111.000356502526 -86.56738986840743 -1.3970993463360135
-112.62759747535893 -86.42415953257427 -1.3986592660094284
-114.11657427073082 -86.27292767597031 -1.4001304165830182
-115.71088907735006 -86.46180823429664 -1.4025738187604568
-117.45342808857845 -86.45924469084426 -1.4048465404311383
-119.07430660385884 -86.39072102048354 -1.4068707224224237
-120.6826882101474 -86.49533615370333 -1.409794069973587
