# .PCD v0.7 - Point Cloud Data file format
VERSION 0.7
FIELDS x y z
SIZE 4 4 4
TYPE F F F
COUNT 1 1 1
WIDTH 809
HEIGHT 1
VIEWPOINT 0 0 0 1 0 0 0
POINTS 809
DATA ascii
-104.27008262464135 -101.24590252431335 -1.576724831032145
-103.38251145062549 -101.73732926392941 -1.582543703267118
-109.25107157036732 -99.77390147878127 -1.557605797703849
-108.3378127313608 -99.68115958920929 -1.5527261984778218
-103.90313175339239 -100.41481217582162 -1.5644559810650076
-104.20465510448795 -100.78793060462536 -1.5699936870354458
-107.08139356000744 -99.3063937634176 -1.5477978503470762
-105.96337214601901 -99.22038270862483 -1.5440793780653457
-103.7109673470211 -99.25224562955867 -1.549560762994735
-103.72360835935872 -99.7738392340906 -1.5548288630694456
-104.9977135073376 -98.76022994463868 -1.5420814028791774
-103.97355811007691 -99.0979907322704 -1.5448311912604942
-118.74527372971896 -101.56074802927267 -1.565298338792575
-99.34624351035156 -104.7938399082315 -1.6053024158679878
-118.12704908181387 -101.94049163008648 -1.564328486047363
-116.69755512452618 -101.86017346510498 -1.5642360112546208
-115.17512033822538 -101.96466057499579 -1.5642729507964535
-113.74651812704386 -101.95408370784469 -1.5645403870903443
-102.87033173261204 -103.23669470057523 -1.5853723515665457
-102.36992292340733 -103.51947843288086 -1.587904510563113
-101.36301137389651 -103.94051639675308 -1.5927476619893561
-100.35362033578491 -104.14195700705503 -1.5976897957431782
-99.50012835076475 -104.63456806990696 -1.602358136613006
-113.01112099678315 -101.6638683756274 -1.5645509558162436
-112.3092276428342 -101.93258999943039 -1.5647731103130793
-110.45550662376407 -101.91542470979626 -1.5636731039261007
-104.31971779361392 -102.71633457382657 -1.5762746639958023
-103.3711848336067 -103.2574989078329 -1.5830963029456298
-109.20237741943865 -101.3616317207246 -1.5578941750606015
-108.49092081756407 -101.22819214878206 -1.5541468853056488
-104.00811113824444 -102.02065617948864 -1.5649022507880412
-104.23114746912644 -101.57847267197353 -1.5699642237262288
-107.08098044284027 -100.76253222406817 -1.5484387797834325
-105.93573815293443 -100.68528241314246 -1.5449165791398074
-103.88282420594355 -100.77723932094102 -1.5494206491249427
-103.82371980697536 -101.37315048962127 -1.5553233451342234
-105.08617389514333 -100.61823127206584 -1.543677343120503
-104.19483590746904 -100.55848836107693 -1.5454394667716937
-119.71274014199254 -103.75660318690797 -1.565185769099129
-119.09940801786311 -103.17656792639825 -1.5655142743753392
-99.08771286131027 -105.85386615599269 -1.6059329419739024
-98.54659548212041 -106.60673123794453 -1.607967999343443
-119.1322149382177 -103.92841125926263 -1.5637321653478877
-118.22600674417548 -103.44493695508295 -1.5641785219183055
-116.70774085341648 -103.47201631460005 -1.5642489853691863
-115.31003257220384 -103.48472669895277 -1.5643715900164388
-113.81051892842989 -103.33189534140108 -1.5647429496115401
-112.96157687702868 -103.46211688431785 -1.5649420878392077
-103.0117935195743 -104.95303876701317 -1.5851939200648946
-102.31168030589549 -105.04976865717768 -1.5884732515336106
-101.38208962779912 -105.36491928346182 -1.5927611747253227
-100.2639016230465 -105.64044724917896 -1.598009850911847
-99.32736460186476 -106.24350849959879 -1.6027592919647238
-98.67624998754789 -106.84859085989389 -1.6054064806212955
-112.07632905565112 -103.4701554146713 -1.5651814939865343
-110.48439042799244 -103.4150526095487 -1.5640971732340223
-104.36343427077776 -104.04230705749927 -1.570892798558922
-104.36006851904023 -104.34635689577586 -1.577607879204123
-103.46456957013471 -104.61217851575726 -1.5830493060905002
-109.28724747507167 -102.98479620207252 -1.5589579633735364
-108.4548157908288 -102.7988024585602 -1.5546851213061117
-104.07947751752516 -103.45624505394493 -1.5649523145184863
-107.07565495857591 -102.34725516847153 -1.5491148880849688
-105.80037153538827 -102.13008336075053 -1.5456612129612912
-104.09795979421055 -102.47575874460988 -1.5496902200948317
-103.90645125056564 -102.6735449165171 -1.555935580660868
-104.91513026739582 -101.89425155530849 -1.5448016114992213
-104.42793909424407 -101.77343733414942 -1.5458700122816769
-121.13396103391426 -105.11205496395719 -1.563395102126236
-120.26709462031776 -104.61993255428723 -1.563684343403463
-97.92661635958204 -107.7895926589388 -1.6084718800691369
-97.23641708297725 -108.38040465267186 -1.6113890040190038
-119.40505820079518 -104.99070929408323 -1.562987198634121
-118.28587513789262 -104.84737874706346 -1.564039463216019
-116.83388521370395 -104.90928578060345 -1.5642244086406556
-115.35336953885582 -104.94453581795257 -1.5645048283047231
-113.83348337079047 -104.94706635943437 -1.5650194079120663
-112.80487982521704 -105.13451382670597 -1.5653349012754614
-103.10894640804365 -106.19512168019044 -1.5850879233518191
-102.34898332345612 -106.55798645451664 -1.5886042236650084
-101.44334551214102 -106.85127019227728 -1.592653737255245
-100.32250175267707 -107.16255990374286 -1.5976711055658017
-99.22621752204924 -107.55390170073358 -1.602792830899299
-98.41841483320198 -107.8421958979482 -1.6057912481279446
-112.01635319041385 -105.07709481196004 -1.5655350163274913
-110.50753760429726 -104.95509106649935 -1.5646519426616523
-109.38478163357848 -105.053599375768 -1.560253853190554
-104.43683438126513 -105.5495612812521 -1.5712458511022311
-104.42106087354925 -105.78109303628763 -1.577768604554307
-103.6374595099788 -106.24643091962996 -1.5827049627629113
-108.48181001586816 -104.40346789837457 -1.5555551899836157
-104.15856632802738 -104.98348911853849 -1.5646878962079829
-107.0564417095806 -103.78506192327822 -1.5497037707478736
-105.61080594196801 -103.62474158278636 -1.5468156582383932
-104.33572623706587 -103.98531524551413 -1.5502218963535614
-104.01523006042164 -104.24503215026411 -1.5561464426716618
-122.36356665526078 -106.35531520709503 -1.5608964672053653
-121.1104167977071 -106.18531515745666 -1.560994319061353
-120.22650737617302 -105.84786062385218 -1.5617644057399949
-97.61925611758387 -109.12249168550208 -1.6078243944130466
-96.96193223059588 -109.49403642433428 -1.610134669488824
-96.05459797158115 -109.95213758712435 -1.6149550122353786
-119.70453705568367 -106.36932910478069 -1.562226701583703
-118.37096369515407 -106.31952608780212 -1.5636047410417147
-116.79671877099054 -106.36701673616419 -1.5640339225827784
-115.2892920019643 -106.43906552728247 -1.564661952640462
-113.82273478248045 -106.5359283883049 -1.5653275878834167
-112.73465825412389 -106.49535162754268 -1.5656764345132546
-103.21344659204628 -107.92447023649726 -1.5851547674223367
-102.32621636880434 -108.11031321002254 -1.5890829055124756
-101.3042452701092 -108.38684757513849 -1.59339750041507
-100.31873872594528 -108.73323332273884 -1.5976173767530815
-99.27075626540974 -108.99649264185277 -1.6021852366555396
-98.17252427547736 -109.40025187484306 -1.606011877793688
-111.97230616455003 -106.54531474242911 -1.5659962306457114
-110.70633498323893 -106.44458657354438 -1.5657278438454658
-109.4627575281038 -106.47443901962396 -1.561380008321494
-104.55521011640118 -107.0433733925233 -1.5719343002525497
-104.51979583812026 -107.43595755660584 -1.5785713525477472
-103.70538610442769 -107.73365315986423 -1.583014952593128
-108.47500383944228 -105.97958969384872 -1.5563674478597926
-104.26772837731619 -106.37357585684373 -1.5650456952520904
-107.1031497781604 -105.49977913327636 -1.5507922103426965
-105.93030871248648 -105.2923584107524 -1.548461340642915
-104.59106201266192 -105.5474451288487 -1.551182234166546
-104.15907831756695 -105.83443642860003 -1.5570455822724152
-123.81229302600974 -107.75031681267865 -1.5586484309483755
-122.5281696601721 -107.5104658685707 -1.559031817095168
-121.17220530328925 -107.66987358899846 -1.5601580602667218
-96.81758599146634 -110.90796195091984 -1.6097693559484054
-95.77190369563928 -111.24279799413816 -1.613034068995505
-94.79190595408313 -111.55561264646701 -1.6173845305867713
-94.09539156809558 -112.36840135642406 -1.6206414880510296
-120.47707330938326 -107.84402598581167 -1.560951842062692
-119.68824222178917 -107.7828777031794 -1.5619155419224335
-118.28918918881622 -107.85528641436089 -1.5633563248060243
-116.83863825938843 -107.87167396907826 -1.5641119464005502
-115.21485268031607 -108.00819782109258 -1.5649868712707387
-113.86554951304858 -108.07250351489951 -1.565745486025426
-112.58839859262825 -107.85715026913867 -1.566291135630614
-103.32100629178873 -109.39073004548142 -1.5855325567179854
-102.38402160609994 -109.65908948020274 -1.5893648857236993
-101.39852737393343 -109.87235157004261 -1.593342817189482
-100.29012721007736 -110.08480359346487 -1.5978627837141954
-99.18228556991991 -110.5533540396332 -1.6024337411504428
-98.0786082798867 -110.63483354806966 -1.6059637433605611
-97.34820464843614 -111.1691390992791 -1.6080525757054909
-111.81012326094302 -108.00303170699752 -1.5667126018836426
-110.63834608951966 -107.99127699355404 -1.5663792312762446
-109.49865447422233 -107.89188693742014 -1.562282536238942
-104.69289376894905 -108.5794925905647 -1.5728900053326262
-104.56312448038453 -108.79991839651487 -1.5795223943031014
-103.90482451567311 -108.92043400429615 -1.5828913113520469
-108.4150322151832 -107.3312420586917 -1.5568171321954452
-104.37990381664584 -107.97744144200824 -1.5644738470371362
-107.21471119042533 -106.79476108693582 -1.551867387365406
-105.91211250743834 -106.80105161493901 -1.5499993068200624
-104.66975527184466 -107.08106177198415 -1.5534043484155189
-104.3028445913929 -107.26399164022773 -1.5572623852317982
-125.19444986392287 -109.07078183771341 -1.5565835769848966
-123.75271663084325 -108.85946810656216 -1.556986926521086
-122.4046875237265 -108.97605331980645 -1.5583641650099627
-121.39159608933358 -108.93259578595925 -1.5596019260760152
-96.48999927410321 -112.58469954499641 -1.6103157342758978
-95.76474062355994 -112.6435212715878 -1.6125397620278206
-94.5287032672058 -112.96529449444448 -1.6163582337688258
-93.56873942005589 -113.2325692676036 -1.6206732618735107
-92.78393953128473 -114.15271450228856 -1.6243156389514053
-120.678877014533 -109.1243233668042 -1.5604508957889838
-119.60850942359997 -109.2615163779596 -1.5619666285133718
-118.34189293074456 -109.40279677769323 -1.5632573498001312
-116.88874471370562 -109.40753488837896 -1.5643773385283586
-115.32155884887582 -109.40959743706429 -1.5652528791685987
-113.92403553770225 -109.58356152588708 -1.5661437330123242
-112.41291161409728 -109.5748404253737 -1.5671012765786656
-111.57115432719951 -109.91276565892198 -1.567674101362506
-104.23724153822624 -110.90221206245924 -1.5827003245083064
-103.59644810737784 -110.84954646811806 -1.5851732945240409
-102.50594994802134 -111.26899397364659 -1.5894625882291338
-101.44757954052184 -111.42484215276163 -1.5935912969405004
-100.38360641608256 -111.69229398241758 -1.5978766003743332
-99.1567842768312 -112.15279417203286 -1.6022810701081278
-98.00928026193895 -112.28458817607446 -1.6060746048438281
-97.1598709329833 -112.40881139450467 -1.6083708519356814
-110.87699168392307 -109.58072603245877 -1.5675546596192058
-109.5010757107225 -109.30985461124213 -1.5630215129932752
-104.8133925824658 -110.13523028937287 -1.5734917547658516
-104.73767455049162 -110.46907337786355 -1.5799819052305522
-107.99801625062756 -108.73579079657246 -1.5558141450185294
-104.48369796694904 -109.40313171203911 -1.564005965092596
-107.05978880879992 -108.4353841057335 -1.55252375855444
-106.15917090749353 -108.61577991393298 -1.5519095797634765
-104.91780393345206 -108.70323562781022 -1.5546174346565795
-104.42983773774995 -108.50304290798714 -1.5575858477868372
-127.47552963108764 -110.88605741539996 -1.554079985936214
-126.47594108878718 -110.39287305222304 -1.5544831672669683
-125.20900546683526 -110.30497909278796 -1.5546659151251434
-123.79868533055462 -110.48583215028678 -1.5563423008620363
-122.40524886806715 -110.41585581201902 -1.5580905270333019
-121.26636815696804 -110.80330303073436 -1.559669423925935
-96.5532636182473 -113.99620739301054 -1.6100790964598464
-95.64939012701262 -114.19512618247721 -1.6125523904097803
-94.45019806251244 -114.41907683937497 -1.616103056492776
-93.37044861208706 -114.73193110364528 -1.619299493707697
-92.2692698327045 -114.98931914804405 -1.6238210473867738
-91.57259172572967 -115.62712553054949 -1.6269816217072164
-120.7599722969602 -110.55839935264785 -1.560392635763082
-119.63777052468828 -110.77106835418341 -1.5620803102060594
-118.14975892851497 -110.64326106131384 -1.5607371426727632
-116.83469759749809 -110.9818201802415 -1.564758200162794
-115.5309687004956 -110.86413178752822 -1.5654920783153625
-113.97918255671652 -111.05100489710242 -1.566503174276581
-112.4734687268235 -111.10666412428446 -1.5675317453849518
-111.34022629816522 -111.43099159850284 -1.5683840771958721
-104.46897245252093 -112.23732408778575 -1.5824384615062814
-103.65731391717317 -112.44495331102809 -1.5855459578563593
-102.4539239589079 -112.77261071853252 -1.5901548537638743
-101.41506553473522 -113.02154483383977 -1.5942199653355815
-100.34052850639566 -113.2357196856498 -1.5984666611056122
-98.79061437284146 -113.33719511192166 -1.600358097624804
-98.1276592688037 -113.84871144863583 -1.6059354422640149
-97.19499329782417 -113.90808721914158 -1.6083858793343673
-117.72907804519737 -110.82629805734075 -1.5545257874544451
-110.65309010554165 -110.90688495317376 -1.568248384561187
-109.65699013912847 -110.80271277944557 -1.5645992224612255
-104.91396405868716 -111.62666122408606 -1.5737587169807075
-104.92543945506529 -111.91337903187444 -1.5801342334647968
-98.03098208432954 -113.43958243016556 -1.5947155617395639
-108.12819065564129 -110.43430375343884 -1.5573539026013523
-107.00906651712357 -110.65855003419549 -1.5541276287939447
-104.69142764419156 -110.46933275134901 -1.5584765584216222
-104.59752732893055 -110.86797672510606 -1.5641065891946173
-106.23986613532018 -110.06051206193668 -1.5534189523674968
-105.21154418553658 -110.26439607146101 -1.5555270562532446
-128.85526897119158 -112.192914749321 -1.551998635735973
-127.89803781457935 -111.59402796230734 -1.5523371313373606
-126.4745965606779 -111.6043622510763 -1.5527984262067323
-125.06109357263153 -111.70248221075575 -1.5545435779195953
-123.7230121627273 -111.80101542353667 -1.556238134767128
-122.36075755091068 -111.99930107140362 -1.5581720230566525
-121.20407442542412 -112.15921516070631 -1.5599031758924393
-96.74514797570819 -115.51446071442075 -1.6097430446309968
-95.63322777780446 -115.7264133402846 -1.6126804533674066
-94.4824817466877 -115.96862084205475 -1.6157676084537067
-93.36165709825825 -116.19383499128344 -1.618986048214017
-92.04796500912983 -116.46521012621947 -1.6228703273240097
-91.07007167496953 -116.64132056100543 -1.626964652006881
-90.24622260416265 -117.40519364567524 -1.6302968860348743
-120.58752165607248 -112.18085565808832 -1.5608206925409758
-119.5591439531606 -112.20259888545894 -1.5623982685426143
-118.11787488226712 -112.13327142354039 -1.5605043762757473
-116.90209148325093 -112.42837884581634 -1.5650940458494234
-115.39058257443745 -112.61662985960079 -1.56607474129301
-113.90224976525829 -112.62232776424908 -1.5670567978586973
-112.52906511305375 -112.62154656924068 -1.5679855100463478
-111.19434818943763 -112.77831423544849 -1.56900160187179
-104.67714656702285 -113.65174844988525 -1.5823421840486056
-103.65347847245874 -113.93434682088737 -1.5861814787122155
-102.57366632015611 -114.21298016293032 -1.5902985506043554
-101.45901720888243 -114.35499329881686 -1.5945284337692198
-100.3648851036776 -114.75413501543977 -1.5988719116524097
-98.73941995383039 -114.84272352983125 -1.5994613366418564
-98.158434196892 -115.33075776066526 -1.6061205539047327
-97.28299718761909 -115.375355311892 -1.608322282806326
-117.54178921331754 -111.6968440062881 -1.554769746973074
-110.51957079596068 -112.34493256388745 -1.568928771095529
-109.52589045896083 -112.58333195733113 -1.5649098928873557
-105.03912425623868 -113.12351354541133 -1.574040668539269
-105.16646371698879 -113.39432597443168 -1.5799180423562178
-98.0836377794586 -114.31290540847824 -1.594461961117808
-108.27308280948219 -111.9538570394798 -1.5587938849559113
-106.68675718702023 -111.81446014756831 -1.5554718054712113
-105.19610342507059 -111.97313384926265 -1.5584517953840864
-104.7652792117807 -112.51239784396367 -1.5651231028180814
-105.99601692593471 -111.06880819831561 -1.5548285083289672
-105.63684290594826 -111.2881575492094 -1.5557316760914508
-130.24130648586046 -113.51806755496372 -1.5500738842588506
-129.26211407253012 -112.99348771530913 -1.5504902268520249
-127.75805830491356 -113.01547121405864 -1.5508966534496695
-126.44729683907673 -113.14495926668039 -1.5525471207929078
-125.09369132495509 -113.17261369406187 -1.5543252576997364
-123.69844862094666 -113.21761949398913 -1.5563226989456376
-122.341547805939 -113.45982020260345 -1.5583589476891502
-121.01990001871116 -113.75241872358666 -1.5604592765583676
-119.94527611862853 -114.15188649731387 -1.5623751459999717
-98.79997784862027 -117.40603183478271 -1.6053520838061133
-98.140955957128 -117.17355343993387 -1.6068038305030297
-96.89464581358475 -117.09546951285827 -1.6096906526488408
-95.68753968214385 -117.0917425996936 -1.6127000083428107
-94.46744124571403 -117.45977332365948 -1.6159246721637177
-93.26312646612978 -117.68115713143537 -1.6191523557259917
-92.03637124276301 -117.90232750632998 -1.622617043119938
-90.92258455335607 -118.10516484975348 -1.6258491585599477
-89.81872359270884 -118.34275259023559 -1.6301050870551927
-89.0376161068085 -119.00826425499409 -1.6334895376532932
-119.66780680531465 -113.55062042477122 -1.5626312992012898
-118.07139794721517 -113.62607356469138 -1.5602855579516828
-116.99228522103256 -113.98630608951943 -1.5655166792598163
-115.49234248606847 -113.94368949153355 -1.5664444583693196
-113.96962797440122 -114.06269224111323 -1.5675565361599169
-112.6522960654285 -114.12397452272955 -1.568533821719046
-111.20241639030537 -114.26672954839306 -1.5697390730991074
-105.39408500349056 -115.713429736817 -1.58051688023342
-104.84450255190717 -115.21467378478292 -1.5827061823513646
-103.77615820584357 -115.39848097259964 -1.58653825680867
-102.5283692281543 -115.77803962582892 -1.591200420724772
-101.49323904570575 -116.02493877783276 -1.595083395455755
-100.3798299811097 -116.42083590351265 -1.5994576642187148
-98.69080145968454 -116.33920479938483 -1.5998762896943095
-98.28703241109466 -116.54609046457789 -1.6062362588019703
-117.44321854610068 -112.71835063201029 -1.5551053057859157
-109.46699374597489 -114.0587366159632 -1.5655348037783177
-105.15613129852716 -114.49917281650269 -1.5739445038485567
-98.24549233648517 -115.90096834974499 -1.594416292767388
-108.16296384659736 -113.67325188233404 -1.5596186815984308
-106.73742810119697 -113.44547599023633 -1.5575979967152305
-105.51972474553675 -113.49859006138766 -1.5598215216534022
-104.93984530854269 -114.02677705237484 -1.5658882375556058
-131.46108994722272 -114.73898038798323 -1.5477765231773974
-130.6227710538254 -114.33650627578648 -1.548171708415262
-128.9844424951052 -114.38261482831902 -1.5490788566736344
-127.77722692743299 -114.4309239721565 -1.5506678574076171
-126.40781612570814 -114.57010489595118 -1.5524989017697177
-125.12404800731943 -114.5917548096922 -1.5543523218896849
-123.67469241689415 -114.87981032485989 -1.5565391394125772
-122.37036781409962 -115.06909961789093 -1.5586471456300686
-121.10558715149841 -115.15905136856586 -1.5607822968939222
-119.75333418983948 -115.19099544271424 -1.5630592263126561
-119.05804218371642 -115.58110309669857 -1.5643926504311352
-98.87295095530081 -118.16830106406539 -1.605459579595934
-98.21025180039217 -118.34149429195776 -1.6070737603635465
-96.91161767702667 -118.53137713524089 -1.6101604082904988
-95.70369379117746 -118.63917701789866 -1.6130237336604603
-94.44145487408383 -118.9807959326872 -1.6161908479808915
-93.29819415035276 -119.31855239923259 -1.6191924528570665
-92.12568107464602 -119.35459954586955 -1.6223093414544112
-90.83212720119818 -119.59619359392784 -1.6258987333509651
-89.6307312857706 -119.8873821431973 -1.6293330398323869
-88.54048235845758 -120.04964431419849 -1.633203189414982
-87.75352215341377 -120.72010499275743 -1.636397147787538
-118.0662342858984 -115.1727636743108 -1.5606880327384884
-117.01854482330393 -115.61520293530518 -1.5660799273824677
-115.60229044883604 -115.59167920597132 -1.5669896629949072
-114.17285974297398 -115.73695034682616 -1.5681172878824656
-112.7665605426383 -115.73400146901069 -1.569261175014522
-111.32525943303663 -115.88018181300066 -1.5704865629193534
-110.32949529738055 -115.87393402440219 -1.5705420452460255
-105.49886187358167 -116.79025859784353 -1.58070314119488
-104.94573445864411 -116.76584093592969 -1.5833621295037197
-103.76938749478138 -117.07573881925376 -1.587610411102015
-102.6841751802596 -117.33947890541337 -1.5914738644821287
-101.61660307154915 -117.53311088893065 -1.595357102232259
-100.51591469781886 -117.85569026382393 -1.5995943926441494
-98.86085531847378 -117.90447195231572 -1.6006492988163752
-109.45649872192784 -115.52165799406585 -1.5664580576116354
-105.26703741880577 -115.92538905437812 -1.5734327664961094
-108.14552078994305 -115.08618515819683 -1.5607039755248673
-107.08541906685613 -114.9812648255456 -1.5594673785198487
-105.72298081080527 -115.23687206837232 -1.5620514386364197
-105.15903116456269 -115.6507399629095 -1.566936250606985
-132.80246434810851 -116.12294966505013 -1.5452822160579618
-131.91895315329066 -115.70208491331448 -1.5460005384823465
-130.48199732598044 -115.6812070413027 -1.5469469266058058
-129.04599638218838 -115.89461337636519 -1.5488543935610113
-127.70059891949083 -115.95950594942157 -1.5507242527123952
-126.37541834307135 -116.10971046688685 -1.5526550104635803
-125.0261875319504 -116.20842880803214 -1.5547011717338688
-123.80738682853027 -116.35841039942629 -1.5566898092121741
-122.49754732089463 -116.55892072420433 -1.5589376095266065
-121.14990994142146 -116.64067263157017 -1.5612247862246678
-119.77728179052781 -116.89358886882904 -1.5636775859752094
-118.68888426881018 -117.22789219379621 -1.565380699928853
-99.16090171791531 -119.94016229314758 -1.6051762517925294
-98.20184347221638 -119.85434049414201 -1.6077188719105857
-97.0500061171185 -120.17032133007477 -1.610450451276208
-95.74401306818918 -120.34339569372466 -1.6135367461837946
-94.46818265942157 -120.47216046880719 -1.616564417686244
-93.18329207259248 -120.7838556659468 -1.6197397165851655
-92.02942436996113 -120.90053673430484 -1.6227021218218058
-90.91118265657185 -121.12269276274463 -1.6256876328296102
-89.72008274143609 -121.29241203935956 -1.628947692788529
-88.52004632849254 -121.51639223270953 -1.6323192247725282
-87.35041340158917 -121.67801774793297 -1.6366596631190107
-86.42060772159704 -122.38679363562004 -1.6395676453714174
-118.09144527828101 -116.63049505021036 -1.560883986490406
-117.02223290687961 -117.13720021253854 -1.566693442215612
-115.56284293832537 -117.17169213158249 -1.5676882459356116
-114.2586655343445 -117.21629231323304 -1.5687025637544056
-112.70813899877614 -117.30337616457776 -1.5700702802993385
-111.31214190122888 -117.43164443661692 -1.571294484069273
-110.35070447011093 -117.43955423352725 -1.5714112105522366
-105.61134397101705 -117.96783946504821 -1.5809485946724902
-105.01296468339731 -118.2420963304003 -1.5840670121528162
-103.80919083255611 -118.5215675040167 -1.5883180297525512
-102.77070533537959 -118.6556352121963 -1.5918889160999785
-101.56677089363973 -119.01304295929839 -1.5963133979348139
-100.54909974942517 -119.26642457362722 -1.6001966165383998
-98.79280175550424 -119.32128800410072 -1.600457648873611
-109.24954693319572 -117.07769563712414 -1.5665508717174939
-105.43336350286448 -117.57855703394604 -1.5731868460667897
-108.16402237071735 -116.53113006442105 -1.562031549073954
-107.30098075872615 -116.70138688485652 -1.5616420577307508
-105.94371876464203 -116.94564987894437 -1.5642169299437643
-105.33655869829865 -116.83071183326989 -1.5673594880068893
-85.29684608119447 -124.34696982492997 -1.6447479584753923
-134.2018105114446 -117.44767639431802 -1.5432299782640317
-133.14488058544 -117.01647971069075 -1.5440677416261068
-131.7460959703967 -117.04708291850102 -1.5451177299325303
-130.4807787644956 -117.18851983600698 -1.5468473304649528
-129.11354250001216 -117.25293234571582 -1.5487749182453059
-127.74274103856773 -117.52435268361626 -1.550777861540773
-126.42657210425081 -117.57997910172793 -1.5528109502281062
-125.05661501426262 -117.82392725346425 -1.5551008827965112
-123.80113562454 -117.73547541169214 -1.557161896445104
-122.48469865164732 -118.01985548109376 -1.559467209768734
-121.19244094204666 -118.06746841026305 -1.5617045803903282
-119.85760253349993 -118.4021425253639 -1.5641589920766865
-118.24884581901736 -118.45419660719486 -1.5662576499860683
-117.67717190339927 -118.67762117292061 -1.5669317632696929
-100.18174816827819 -121.33025001559842 -1.602666035153843
-99.41423567710075 -121.13967881199409 -1.6047581605060934
-98.28155133579084 -121.4092848674368 -1.6082102856887985
-97.07761613408964 -121.63440547540476 -1.610999673015004
-95.78793483272634 -121.81483798212263 -1.6139808573446224
-94.52975925874088 -121.95810192554332 -1.6169482433703053
-93.37177141300543 -122.03655074736108 -1.6196837886499356
-92.06458117093504 -122.36684130435302 -1.6229107898222566
-90.89770646440026 -122.60316714544538 -1.6258737146935438
-89.71035274706885 -122.86580079316379 -1.6290243188467965
-88.52852749688861 -123.06080698852969 -1.632236300291887
-87.36911578433934 -123.2110549255637 -1.6354275540230452
-86.12917201197395 -123.44944431274405 -1.639595616877702
-85.26587822924306 -124.01713758022154 -1.6427171679102646
-118.13639703445722 -118.16476622070323 -1.5608216170550486
-117.11672702143306 -118.51411831638701 -1.5672067061086636
-115.66243419890304 -118.66694606205934 -1.5682670870135216
-114.28705114829776 -118.75487525169532 -1.5693704825370276
-112.86401535841061 -118.81849555200245 -1.570620009025493
-111.43413570609299 -118.94885029079728 -1.5719213511942545
-110.40289015482945 -118.84269560007321 -1.5722366591655417
-105.75816980828498 -119.61275712603953 -1.5814142843371204
-105.01554863482505 -119.79900538506936 -1.5849694144919677
-104.01954997799568 -120.06645912707863 -1.5884592375600777
-102.81940464501464 -120.42986331049012 -1.592692183952713
-101.78690104238493 -120.5104332255887 -1.5963373274885964
-100.65582703251954 -120.90113913114656 -1.6006531610755674
-98.64278955567326 -120.7535590392858 -1.6000929406607811
-108.93013433832891 -118.44131247457047 -1.5662824573212695
-107.81455542780043 -118.54160283937972 -1.563924536729846
-105.99153206707986 -118.92857253468235 -1.567559668004706
-105.59042513414406 -118.91846262048908 -1.5732796541510619
-107.11301627584977 -118.24256625476302 -1.5636812315429327
-106.27155266705572 -118.40109405993829 -1.5655549821480121
-135.66166148415866 -119.00651845266297 -1.5426044373402512
-134.92394053560662 -118.24801546356167 -1.5436602828851387
-84.82479255985191 -125.02622469477497 -1.6460556515412514
-83.97306248449574 -125.92670816815028 -1.647743180211986
-135.46165868264768 -118.68660638186475 -1.5412423838186666
-134.521395777809 -118.40901710049712 -1.5416964886372528
-133.11313353419652 -118.42428403641722 -1.543156358762141
-131.75816776057982 -118.65535912297773 -1.5450522899987376
-130.50335782984723 -118.72767733978371 -1.5468676037114155
-129.1315912050681 -118.79557544940116 -1.548859636462597
-127.67292557082658 -118.97346981823401 -1.5511825154807943
-126.4986283966976 -119.13967015060457 -1.5531465801196833
-125.1017001570008 -119.2246601270662 -1.5554970337966647
-123.85907229868644 -119.48789115644541 -1.5576734320755399
-122.41272255029202 -119.47013834388613 -1.5601634062838126
-121.21456385282508 -119.84174622139955 -1.5624242152226857
-119.94553747025755 -119.85382004007623 -1.5646553111036998
-118.64102534696349 -119.96420956350711 -1.5659943478491953
-117.57214891141753 -120.17958728487704 -1.5676041735047939
-100.392164876508 -122.5815717670438 -1.602513603320873
-99.60862882231277 -122.50684262049619 -1.6047432495017737
-98.3233461211599 -122.89646318185602 -1.6088135007712105
-97.12158678273246 -123.03262954605789 -1.6115297585102186
-95.89744977599499 -123.29777720286961 -1.6143630997968794
-94.64097114869213 -123.50664679754065 -1.6172714738154494
-93.44418468086887 -123.75220103420426 -1.6201180800995856
-92.2017235278052 -123.92351447290599 -1.6230910325049557
-90.99858760364224 -123.98760952156248 -1.625966480165042
-89.73414991764788 -124.33508463698391 -1.629146796149773
-88.56349105084362 -124.5305248245991 -1.6322127735881056
-87.32751984144045 -124.6883480455324 -1.6355364553380793
-86.14216230498403 -125.01579024688742 -1.6387560041300675
-84.92876196052703 -125.16131053118417 -1.6423340984445947
-83.97467750550027 -125.71084492783717 -1.6455940495202017
-118.1197118679838 -119.65010860191663 -1.5605661393376746
-116.80468694155026 -120.16587962661029 -1.5681046539583126
-115.67419007649576 -120.1877726743872 -1.568947137781423
-114.35514466857573 -120.2612205121357 -1.5700383226831829
-112.7984118686827 -120.4990692220946 -1.5714970919900524
-111.50569987419911 -120.43080132021997 -1.5725617386856074
-110.35243026635666 -120.55775307595634 -1.5729654422586528
-105.89147371661899 -120.94403470230782 -1.581557435419842
-105.17820933152032 -121.44200881122492 -1.5853753113284348
-103.98375446767896 -121.5393120223741 -1.5894471279581948
-102.90056087370616 -121.79658535453146 -1.593226133683446
-101.73880167655217 -122.09059119819166 -1.5973897275363154
-100.86337090763838 -122.33568337348788 -1.600643397922378
-98.63247067994463 -122.35138044141506 -1.6000502936702368
-109.17310675734265 -120.13277689952643 -1.56852089316516
-107.64374821026435 -120.00355193450869 -1.5658258617250658
-106.43054025737386 -120.12987371194964 -1.5680434285562008
-105.81869381567405 -120.63891228769828 -1.5748708010484314
-136.9684648848405 -120.1866571093184 -1.5401852428807319
-136.30997818591254 -119.82334223492953 -1.541606903295557
-83.67213759613927 -126.99941107246471 -1.6487067950490477
-82.93863160935933 -127.47838693943717 -1.6502646074743865
-136.78358631988888 -120.08737825366262 -1.5388711259609142
-135.82567866757486 -119.79544232324882 -1.5398449849387625
-134.4356254849364 -119.79255195111392 -1.5412801823881241
-133.00453823053024 -119.98420589992908 -1.543294011872743
-131.74090774247298 -120.16472908968578 -1.5451480195910174
-130.4107745960751 -120.12873715829801 -1.5471349959975882
-129.16974127092888 -120.31810072482794 -1.5491484249908
-127.7237500876961 -120.44883038427402 -1.551543810291026
-126.49434493401566 -120.62503463499054 -1.5536445309167999
-125.22738785283146 -120.83382144583693 -1.5558526524407617
-123.89370146636048 -121.03569139191882 -1.5582460408933798
-122.64482145958468 -121.09877392330034 -1.5604998642117998
-121.33540011675616 -121.3379642367569 -1.5629156414956646
-120.06587495764772 -121.48927699196857 -1.5651938681996838
-118.82327756884159 -121.43598378824805 -1.566249730848119
-117.31755934168847 -121.74379133781552 -1.5684492085754314
-116.49770238559735 -122.32336379533231 -1.5692890097238188
-100.73350251213743 -124.04819859112257 -1.6020679129212794
-99.48487015904645 -124.32319583038358 -1.6055647914371656
-98.37472602696252 -124.49013868644155 -1.6094529684232657
-97.1012729782931 -124.70416728793977 -1.6123890017079296
-95.91153514545827 -124.89097387725157 -1.6151110837505662
-94.66383023144274 -125.07319818113668 -1.6179162963793685
-93.46544530402115 -125.22927600740283 -1.620640150210282
-92.21711760735644 -125.32587535270163 -1.6235432024921341
-90.99011043380771 -125.60452138564497 -1.6265174537806935
-89.73999190581152 -125.82860215767666 -1.629555283143652
-88.59133463296293 -126.0454518798877 -1.6323990501397894
-87.29524953387738 -126.32700899215256 -1.6357230354063836
-86.11894581068663 -126.49919199260948 -1.6388471837275966
-84.95053593654438 -126.6331905551234 -1.6420009521869574
-83.75926060288751 -126.89990585858274 -1.645662047481777
-82.78561068646025 -127.44680894665382 -1.6486048540751168
-118.15155688438846 -121.22418657419004 -1.561501876573764
-116.70126163221775 -121.40315257623097 -1.568729713256804
-115.78306847719838 -121.75954563906613 -1.5695961644232117
-114.40111049749139 -121.88121959215609 -1.570794411400806
-113.03461056986202 -121.8892354705801 -1.5719420448668902
-111.56144519141901 -122.0011668807467 -1.573286915486863
-110.28807546547617 -122.13029925251027 -1.5738083930899764
-106.05210057267274 -122.64879529355066 -1.5818828842200492
-105.25244803889838 -122.97585341143247 -1.5860878029378696
-104.04365601043226 -123.16151682416223 -1.5901523641970727
-102.93365277673637 -123.51331279419014 -1.5941315042759892
-101.85626237088982 -123.8016144128378 -1.597971427369946
-101.12461165898637 -123.57672798814134 -1.6003924702540209
-98.69775238869939 -123.88441282791239 -1.6006715372147136
-109.17813036472154 -121.64456630201964 -1.5697352147212464
-107.86792897557643 -121.68337865909382 -1.5680019372545828
-106.68125162718181 -121.6556397636025 -1.5698822657309157
-106.01434716273582 -122.06644587785601 -1.575417497522771
-138.22459130955872 -121.37570361180988 -1.5377680402461487
-137.56754483186847 -121.09583074960608 -1.539160679418182
-136.70336294417004 -120.89585343242958 -1.5409834954696673
-82.6113467920465 -128.55291068403366 -1.651083356424769
-81.64632447524696 -129.16005301996998 -1.6534001722516583
-138.07107755494656 -121.48371338680766 -1.5366353440924705
-137.14199665507167 -121.1728382120438 -1.537682582134511
-135.92173932791158 -121.04314817308847 -1.5392738958938956
-134.33463937919083 -121.30209024273708 -1.5414209489062325
-133.1391228795033 -121.41668284210265 -1.5431742231863337
-131.80260917047397 -121.65161886929874 -1.5452725231908788
-130.4725768209787 -121.66598280354589 -1.5474264645128075
-129.20509626298457 -121.81512259399874 -1.549536005378367
-127.8453937280527 -122.05008473073045 -1.5518683333716115
-126.59774842849319 -122.11337127891318 -1.5539945828685569
-125.42099478307354 -122.31662370103892 -1.5561450235871943
-123.90521314693532 -122.57966052397296 -1.5589940383424619
-122.64143686789696 -122.62126640309674 -1.5612285941963744
-121.48514469839772 -122.99046702953098 -1.5634122739461895
-120.15042658982044 -122.94591306101432 -1.5657427561217163
-118.59800764613553 -123.16578050491657 -1.5669760924158442
-117.30566135479602 -123.1865100829391 -1.5690811472498427
-116.33288557432596 -123.49997243062053 -1.5699537141744002
-101.52030694319498 -125.41104948691006 -1.600028563785145
-100.79689691328761 -125.46730601577922 -1.6025992574105163
-99.68340777941268 -125.70019307152917 -1.6056117266880923
-98.41655301250525 -125.95132776329524 -1.610110881382613
-97.34864602426414 -126.21865930541969 -1.6125660837340663
-96.12582861595918 -126.42140343647569 -1.6153725290243206
-94.75974259214478 -126.62433742533511 -1.6185058458243746
-93.41736193404321 -126.99081509663687 -1.6216083366576068
-92.25091639903725 -126.97697043283443 -1.624123317432532
-90.95618526788176 -127.15611206268787 -1.6271384412114704
-89.86654750235776 -127.33598243457132 -1.6297532381218423
-88.61562785130874 -127.46687091711868 -1.63276039267173
-87.33523325238474 -127.74621198460643 -1.6359222163272866
-86.17502017569542 -127.93359312451973 -1.6388192094019154
-84.99791192115887 -128.32136556560695 -1.6419263010165834
-83.80143893699247 -128.5358163332663 -1.6451305116976567
-82.49189574192431 -128.64146296977452 -1.6488722188800289
-81.66727907555213 -128.9637839563415 -1.6514224432357913
-118.16114870841908 -122.62397903147104 -1.5613148073646133
-115.7099244452055 -123.13935708352832 -1.5703059467310143
-114.5046580159447 -123.22522304721645 -1.5713235197882027
-113.1520229489956 -123.44825881312018 -1.5725332403390417
-111.62867418783306 -123.5032989500543 -1.574034229181499
-110.25967646605825 -123.6581228703063 -1.5745040064578146
-106.1893024792646 -124.15216550881857 -1.5823554259336288
-105.2840423835603 -124.41643642698753 -1.586944522449869
-104.1293079910827 -124.7017748994697 -1.5906810775881177
-103.04888682539041 -124.98697479876591 -1.5945326629165417
-102.075215304351 -125.17283896664325 -1.5979956417041807
-98.72501220118582 -125.3756589270463 -1.6014798956652307
-109.27540234806524 -123.21454597992972 -1.5714427468392589
-108.10210948525577 -123.31447254075027 -1.570103562561932
-106.8511178426922 -123.38838145047032 -1.5723025455179558
-106.27884915154647 -123.84018600315605 -1.5762154377581163
-139.56340224354113 -122.87890786203921 -1.5349970072061507
-138.78215074962986 -122.27948508041933 -1.536810796413005
-137.84434631716493 -122.04802401030341 -1.5384672081094632
-81.18840321362153 -130.41349194170704 -1.654570797090864
-80.39038088633868 -130.66074448963587 -1.6556391695549082
-138.42578006182447 -122.47124030751537 -1.5357480895896283
-137.30821938731745 -122.45205886476946 -1.537175258240656
-135.90381199724328 -122.76397005704354 -1.5391960613753088
-134.4697198410966 -122.82615059453511 -1.541319530237189
-133.2733822015788 -122.92286835879322 -1.5432211611231768
-131.82122756101464 -123.22630095767907 -1.5456652609574237
-130.6020688697325 -123.2210482405439 -1.5476755185223883
-129.0797401005901 -123.3935896529817 -1.5502603011771368
-127.95215928879435 -123.52745804691457 -1.5522377926801856
-126.58381786546643 -123.8109452350158 -1.5548332499167592
-125.327114350664 -123.88614882113718 -1.5571243926167186
-124.04128159463541 -124.06414957853146 -1.559452195799703
-122.7572311167712 -124.199778355137 -1.5617827674208298
-121.4940003725821 -124.4385280384442 -1.564242247483656
-120.16156908575543 -124.49236465611777 -1.5667816823040137
-118.70845654855206 -124.6992247716073 -1.56737277761997
-117.40049873511289 -124.69888144538403 -1.5696107831618575
-116.1525449054414 -124.88787180661204 -1.5707079218382372
-101.82586338363525 -126.92720897627521 -1.5997575323161042
-100.87108284171441 -127.02622233488535 -1.6031280254778852
-99.45303487059475 -127.30289908878777 -1.6062451352129952
-98.58076627727469 -127.56528660443527 -1.6109773836780223
-97.45121667973011 -127.70947463588247 -1.6133365048941875
-96.09265498117057 -127.83724622864159 -1.616194797980423
-94.860573130246 -128.19248335281162 -1.619044271465727
-93.61479939675785 -128.37021020583754 -1.6218830353741645
-92.45090968671485 -128.56973616186352 -1.6245336063163671
-91.11371169356835 -128.67511447315266 -1.6274489839397424
-89.8969051694698 -128.8707879297263 -1.630227479587437
-88.59442845697166 -129.04397383243935 -1.6333274428028544
-87.31971533084067 -129.30230961205262 -1.6364082168100158
-86.2759596118553 -129.5406614794417 -1.6389733207165256
-84.82276624836942 -129.6992418962638 -1.6425452774978742
-83.76121608109723 -129.87960417331345 -1.645297739879305
-82.58362504224421 -130.18963226147685 -1.6484318993076115
-81.4189966042421 -130.29023034147625 -1.651637205102321
-80.43653968936857 -130.86386208015693 -1.6543816181841549
-118.1975347915839 -124.2453110661734 -1.5612673850680139
-115.45374751609431 -124.66427888491404 -1.5711491535870754
-114.48920342902986 -124.91347564865559 -1.5719862961896698
-113.13854452794433 -125.05237593117027 -1.5732654740001353
-111.75636318040367 -125.11857535670913 -1.5748025847503389
-110.17108043760823 -125.1431058524286 -1.5753350805911033
-109.23650399397442 -125.60295386154638 -1.5733168930230808
-106.38157095261056 -125.63442101535695 -1.5825033394295192
-105.39608206737685 -125.9509013314916 -1.5876406136853858
-104.25279193254377 -126.13361312966855 -1.591083122372013
-103.14844644947112 -126.5954851065637 -1.5949468746009783
-102.33401182875065 -126.64398485866893 -1.597804883636241
-98.68947446023387 -127.01787295710977 -1.601007307529581
-109.1443257130509 -124.20443227402957 -1.571886816498121
-108.29522373719968 -124.93914051413368 -1.5720987899155017
-107.09274550065551 -125.07690190467818 -1.5745070008780677
-106.44461867268171 -124.91979688464536 -1.57692125868602
-140.94926430969167 -124.21882016392613 -1.5332050812463653
-140.02553619338673 -123.72049244826385 -1.5339064171462438
-139.1677255722961 -123.33534381969343 -1.5358689429840602
-79.80023600696333 -132.05235633481954 -1.6560349455127223
-79.1382470342761 -132.48287954457538 -1.6586968425808093
-139.40864206707246 -123.90927789433674 -1.5341631680052894
-138.48900340599255 -123.8929023750351 -1.535460849186705
-137.15378497246562 -123.98506232260407 -1.5374162987566566
-135.96428430715883 -124.15252432361373 -1.5392182453662109
-135.0055038085241 -124.14203000573275 -1.540714264700061
-133.18800571991235 -124.23185028060699 -1.5436962767634657
-131.87031451755078 -124.58981135975154 -1.5459875191629704
-130.57451549643233 -124.79707007442528 -1.5482400426890175
-129.3917298025999 -125.01058168622849 -1.5503957463454443
-128.08834517804752 -125.09770743911668 -1.5528070133540508
-126.67099284181894 -125.27867344070219 -1.5554246796490914
-125.36309539706676 -125.49152035149405 -1.5578507232736156
-124.07067089204168 -125.53171856062455 -1.5602549104087036
-122.88921172676127 -125.85884240748568 -1.562746930543686
-121.53364066392714 -125.94086801091495 -1.5653685771280526
-120.26307561227628 -126.03663859558124 -1.5678122023268612
-118.87515540570229 -126.15754223498976 -1.5679029274372587
-117.43451276191007 -126.2702951019561 -1.5702447534466484
-115.99047867469177 -126.29397918742862 -1.5713516460685462
-115.1904291778162 -126.70789238822786 -1.5720040864459328
-102.62577224854331 -128.87828595050388 -1.59756323679346
-102.00292956685922 -128.37194165636652 -1.5997379860873475
-100.83223814366006 -128.49770889925944 -1.6039991747660136
-99.72123174414715 -128.77159733063004 -1.606750166809644
-98.74101710061504 -129.0723134251738 -1.610781737851169
-97.47432915949386 -129.28067851638974 -1.6145629595401674
-96.19550009817526 -129.62933752388065 -1.6173925270979892
-94.98997521242565 -129.64276864146677 -1.619771091331598
-93.66223167963115 -129.8834109756211 -1.6226193137384677
-92.41906751942297 -130.1454137319835 -1.6254007546897533
-91.04280368775113 -130.238728996473 -1.62845581689575
-89.81302860528872 -130.4094738354631 -1.6311660098701084
-88.65259943718476 -130.65160486841506 -1.6338024277424184
-87.51725809164134 -130.89232972606862 -1.6364714300196512
-86.17715446115945 -130.72901061368634 -1.6395361393687757
-84.66431305379317 -131.29232135701244 -1.6433031680046482
-83.87193992811703 -131.32450900843023 -1.645229891201994
-82.4835107982967 -131.63087667249266 -1.6487858917137959
-81.37058504267937 -131.8790633179968 -1.6517306220514134
-80.37509941449038 -132.06329320615924 -1.6544012959624963
-118.10700957215633 -125.63609999725603 -1.5603595388067397
-114.49139817586313 -126.39719610635512 -1.5724209831726517
-113.2313897158824 -126.45938077083501 -1.573139918839317
-111.78814862242872 -126.63501943282785 -1.5756364137538053
-110.03526886813624 -126.75653627084583 -1.575963809152856
-108.81055746800482 -126.73155724169182 -1.5740637669011603
-107.16454960967818 -127.00726128916148 -1.5769355889310714
-106.57291460933749 -127.22711085485635 -1.583201839141333
-105.49346687875908 -127.50699076505677 -1.5884267945796355
-104.1965477147495 -127.85120369849766 -1.5912897840557458
-103.1526693772818 -128.02795396833199 -1.5952359318747968
-102.54374583937802 -127.90809474437333 -1.597551433345783
-98.6129680382626 -128.2221918384884 -1.5994351614881819
-98.4502027886736 -128.8923594931099 -1.602492570993861
-117.53138057973149 -125.67763910403114 -1.554599274559881
-109.1303904193549 -126.28429539634709 -1.5697868008211304
-108.41939215848957 -126.23504707600333 -1.5712698715791296
-107.3706477758587 -126.29666504998221 -1.5754640402923734
-97.88315888316559 -128.2369370630889 -1.594523729835076
-142.1319992216613 -125.75452226731123 -1.5314569848031991
-141.23601684315713 -125.19456837419351 -1.531885977908101
-140.10462075682932 -125.3658232530124 -1.5331236419873213
-79.74437362040406 -133.75244071227644 -1.6560780048819428
-78.94091032457723 -133.7857262829025 -1.6583969841601978
-78.01346753732611 -134.197205038596 -1.6616123285045934
-139.53814585485597 -125.15763235227499 -1.5339547676625962
-138.43457998932058 -125.4064643164283 -1.5356191251447877
-137.15214525220424 -125.61259579974336 -1.5375838771622146
-135.87338440419813 -125.79651051796279 -1.53968100307638
-134.91576506023864 -126.24298207348019 -1.541392153904148
-132.86815836545452 -125.57156828125773 -1.5446228284470664
-131.87506129857627 -126.2496147602088 -1.5465901850330481
-130.62838481975078 -126.37676603926593 -1.5488944725933884
-129.50297997513331 -126.50754393058139 -1.551012653501692
-128.03578232686823 -126.69338464623364 -1.5537423240833232
-126.72711260967108 -126.97102211312186 -1.556374599587874
-125.5145207350529 -127.06336016038892 -1.5587625366714106
-124.31114206819747 -127.25834956230132 -1.5612071430497603
-122.9371689600537 -127.42018669496014 -1.5639055964252524
-121.68110227141 -127.49810317146498 -1.5662929121013929
-120.52866476062053 -127.73830446703937 -1.5689033242588482
-118.82900647855601 -127.67989832583814 -1.5679601164085772
-117.55861499547582 -127.7912136604079 -1.5706511909785448
-116.16898930205706 -127.8895077553201 -1.5716933527372778
-115.14929395371321 -128.01351412241712 -1.5724464014100887
-102.66971983201853 -129.52115975037174 -1.5977679963941478
-102.08560630843616 -129.9178266448027 -1.5999394251768004
-100.95964838115508 -130.11835882646506 -1.604201494719027
-99.86804599642669 -130.3174340123722 -1.6069160976127603
-98.8669659574669 -130.5410721878365 -1.611371302860895
-97.6028666407333 -130.97284003764366 -1.6157950036020463
-96.34530166206069 -131.03869033033777 -1.618210767479497
-94.97105089346087 -131.22587349905496 -1.621119876575401
-93.76811301638872 -131.40066630102777 -1.623641713943241
-92.5664290282431 -131.6143245515853 -1.6261647832481652
-91.22313410908178 -131.8212869734102 -1.628972631223482
-90.06960491034228 -132.08296229527662 -1.6315509078196384
-88.75107056928164 -132.10825849127986 -1.6343743503677555
-87.60958743247139 -132.29227055722075 -1.6369000724444245
-86.45207509617454 -132.62214982297567 -1.639580127036829
-84.80161105892599 -133.14436818109246 -1.64355550422068
-83.66628317108163 -133.05577768949922 -1.6461719737835725
-82.5718860274123 -133.1661160757865 -1.6488068739549504
-81.31061304270575 -133.32404305779366 -1.6520037385916502
-80.40568842406935 -133.62992396209944 -1.6543835242190204
-118.0721258680196 -127.11555900268046 -1.5603058461019887
-114.3196171499595 -127.9294722523425 -1.57200913420235
-112.88937323720937 -127.9363240078198 -1.5727375400655963
-111.92167278262345 -128.13058134488134 -1.5758964844166938
-110.13286024027634 -128.22472856546798 -1.5768071451276973
-108.8941064798202 -128.25817511025872 -1.5756017214820444
-107.34527135314238 -128.27155313382565 -1.578000072898651
-106.69776456153154 -128.74141832947427 -1.5844530018832534
-105.6346066726147 -129.17791229167844 -1.5890913626892833
-104.22063203389074 -129.23447419494718 -1.5903980265705384
-103.14990136649891 -129.35491650862798 -1.5942948729208781
-98.79897679639727 -129.72338745908047 -1.5988383168492273
-98.24883504778384 -129.927206130638 -1.601102089991992
-117.36897389158295 -126.74975201828417 -1.552978889351766
-109.09855947683026 -127.40428794787336 -1.5708937037482544
-108.69740863796027 -127.62295198496629 -1.5717809540926349
-97.69722639386772 -129.3580214655979 -1.5929255630961663
-97.52271075424923 -129.73076044514727 -1.594153664020618
-142.43860605633594 -126.66989064764495 -1.530719183400317
-141.17768781802548 -126.72491000311378 -1.5316006316175024
-139.97910010975707 -126.89002734952096 -1.53338819031392
-94.36934566327038 -133.78286143578615 -1.6262963352673738
-79.90539755555594 -135.23407019661792 -1.6558425419011376
