# .PCD v0.7 - Point Cloud Data file format
VERSION 0.7
FIELDS x y z
SIZE 4 4 4
TYPE F F F
COUNT 1 1 1
WIDTH 875
HEIGHT 1
VIEWPOINT 0 0 0 1 0 0 0
POINTS 875
DATA ascii
82.87797300831086 64.20718548167163 1.1833331205113427
82.04019814126138 63.77931319740746 1.1820748803215926
82.94832427205486 64.05511164524889 1.1484308684902573
83.73991195085304 64.13409079142284 1.1528075220260459
83.63091565510412 63.763939770670206 1.181488930506048
84.97951037347619 64.12979015701629 1.1593527981366452
85.75886702369127 64.31045389144863 1.1647049560814315
85.71090575232274 63.99524791313579 1.1778494462216058
84.87692495872253 63.89815671539098 1.1792551140291467
86.14784724554733 63.97627674712833 1.1686352805238815
86.16597737617188 63.83342147300915 1.1738759341415448
77.40378404913827 66.02806479191408 1.1062097012574021
78.64845017808499 65.31002171814382 1.2141806888335602
77.78811385996902 66.13209091950218 1.109300322159894
78.39402392293063 66.01514303792449 1.1162766828965207
78.97609380848863 65.96859413166248 1.1255790571615665
79.28406174175282 66.1345807653834 1.131951509191067
79.93502692606461 65.62393925601124 1.195773958634147
79.72903827378161 65.4635751934296 1.2016029011776361
79.23133605451422 65.45064305335316 1.2099913920933345
78.91566232232888 65.80962031093212 1.2151871752700885
79.45608589791388 65.96529322977544 1.1302705968139535
79.76093189467629 65.84813104356404 1.1360364548587993
80.59553575016659 65.9802482445557 1.1443356263887874
80.89600817397933 65.53392028879794 1.1875275904313707
80.31404395746273 65.56259397448056 1.1929036841916096
81.8982396322331 65.84186163443827 1.148677414658871
83.06498928541536 65.53022907916574 1.1866712350504356
82.32520762850339 65.55467133250082 1.1867976141008163
83.13558908412037 65.75027954121892 1.1530334314439001
83.99559893678699 65.67828852905323 1.1575186421366401
84.05237527875978 65.61042478594392 1.1857056841840825
85.0600158024295 65.74863851115761 1.1634402058544355
85.97132777120834 65.71191876072652 1.1694703669712974
85.97588643717425 65.71306539362222 1.1810309127232386
85.08281729619657 65.53985088107994 1.1833164707895105
86.33993609580278 65.56573702680885 1.1739250420344562
86.36638476641336 65.68978609371366 1.1774725532750874
77.77236863311623 67.86690369293122 1.109296698834201
78.88431485095332 66.85076948447663 1.2205910127638457
78.2189927620287 67.64833364504497 1.1135416992121827
78.80525595700927 67.59448216565372 1.121307436358198
79.26587644429934 67.51998261094127 1.1280008533047323
80.22524239107433 67.23032392788087 1.2002314576139976
80.08326843394534 67.13720741446281 1.206177384030177
79.68750656276542 67.11257670277215 1.2142887308943977
79.2679922622992 67.02286116180606 1.2191016289955046
80.18898288610873 67.70065934962288 1.140370292034981
81.05525332042605 67.44342029282441 1.149531497626062
81.14898829186122 67.0310686151882 1.191605142921186
80.57945087227895 67.26078242230433 1.1978006028943844
82.29157230826029 67.47285097539182 1.1539004792314487
83.28983117849918 67.17412682929132 1.1908028801359465
82.56750119452846 67.21091409032107 1.1910100377205592
83.3531194898364 67.22966664085192 1.1572813926519043
84.21561933171752 67.34451536438648 1.1623486893655588
84.31453734996492 67.11852495796616 1.1891415023468377
85.29648113320515 67.23301775304006 1.168021214812946
86.1634873455182 67.34846892194949 1.1749090551145496
86.18371242510699 67.34247269102687 1.1840754158197186
85.24681668046546 67.28588987731102 1.1875618864959878
86.46812990120507 66.7527609512284 1.1782949951129995
86.4354097435375 66.59255692699341 1.1797143830149217
78.12446142958618 70.06174351293761 1.1125246569384875
77.9627494438093 69.08180760137036 1.1110443679521484
79.29011387411327 68.63664945543643 1.2276461080312446
78.48592084234211 69.42657438266747 1.1160715763514788
79.14823660956121 69.2892030385202 1.1254201876405554
79.69797868764633 69.27382818804934 1.1363628828572414
79.99496434150127 69.52019693278663 1.1421380911780243
80.55189773129376 68.78950457612981 1.2048119596084828
80.40940871561922 68.70637892089935 1.2103280870355282
80.08888258627243 68.76941769861384 1.2187831791417032
79.63803625304585 68.59668301766933 1.2245965819757711
79.9888027082843 68.64976955165574 1.1381599422259392
80.29903919864209 69.18527896028289 1.1450147619732427
80.8582867135178 69.13731421339729 1.1515804958803502
81.3836106748876 68.89533806908747 1.196542793293477
80.87158800384466 68.67158720736425 1.2018877530260672
82.50929986051722 68.98075057570824 1.1581747559466085
83.4125435617196 68.84707441367777 1.1949977421987967
82.62603123393384 68.76427137073152 1.194936744496071
83.51242251391332 69.13273228170053 1.1623480354559577
84.39886327439311 69.03337897517996 1.1669790204431543
84.58500083656072 68.8144351559205 1.1932850622325528
85.4500772745885 68.97674353134617 1.1728436937437912
86.37743823939647 68.90093194566553 1.1802539695998735
86.17916546406221 68.88778887456728 1.1884568422336224
85.41252380580616 68.60997325698479 1.1907248867747313
78.31759754762996 71.21108323216663 1.1145599621844196
79.4728263001237 69.72614289513862 1.231932178491769
79.62990231101043 70.71153753007083 1.2356880593037562
78.4669947776633 70.99209210905464 1.1154193268709083
78.88489340919041 71.02441890353096 1.1204773750903765
79.49998397558545 70.88818966542995 1.1300219498012514
80.04319921079959 70.92140552405984 1.1385867266767862
80.85389814833268 70.31526819024097 1.2146902286203172
80.45766448358725 70.37047104197245 1.2229457185854176
80.01527801983731 70.27796309893914 1.2303414168621394
79.81155254849818 70.80769038059022 1.2356504313936043
80.30052685598726 70.49705237916478 1.1424204597893919
80.78879552614708 70.91007397918972 1.149620077824783
81.39430623412129 70.78202838225653 1.157353314304426
81.946848463238 70.481896148373 1.2000862223850546
81.30702568055426 70.42666204837147 1.2073799198028716
81.08478301100506 70.5896410222768 1.2122237477957052
82.92354065703177 70.71050692436802 1.1639041847495637
83.78339575534099 70.99238766595015 1.167735515097912
83.63892297494186 70.69632914023158 1.1996256654809023
82.90532259806487 70.62864590618786 1.1993244264160918
83.62124682425356 70.03740283565214 1.1648829954917987
84.65593120422697 70.71726772529503 1.1720148081039337
84.86159700902384 70.53920150782584 1.1974211673811996
85.5935900773226 70.45052887226463 1.1768689373950476
86.4193779919369 70.58768482898611 1.1836904264415227
86.19374732083439 70.41311460753892 1.1929507675968325
85.69018945765676 70.4319068010838 1.195079490127835
78.61278745992772 72.74973654542327 1.1174930046669835
79.8705800005776 71.79531326566553 1.2396752940932356
78.87026594325961 72.90713069871103 1.119592027853839
79.29050520672591 72.66980272515403 1.1252419962294307
79.87853025743651 72.5754203222662 1.135016666995649
80.33696869409249 72.47392377000423 1.1426171422768836
81.15544878342511 72.06226092072163 1.2206022045531835
80.82217319967982 72.02332148016303 1.2275030007685843
80.3310976626001 71.75994629322548 1.2354638898757513
80.15914613213008 72.1502278620426 1.2401371146454572
80.6805915723732 72.39290824824143 1.1479721343563107
80.95438548203964 72.47570505947243 1.1526833276159858
81.81918477348664 72.37893662392699 1.1631857823027714
82.1096181480839 72.12662102878835 1.2046393205465453
81.5416143820542 71.92022012598358 1.211975180890804
81.26170911500047 71.4928332651774 1.2148666461833217
83.14123313454648 72.41582549446879 1.1686640628080893
83.90419114392898 72.45299506774577 1.1715879246914997
83.94552237529513 72.2013015191335 1.2033437228746284
83.08095602531564 72.12364215236711 1.2031181934362392
84.8528095556921 72.29899884531201 1.1764224176418976
85.98160512107414 72.66374089780004 1.2005862897074506
85.17866604503654 72.0847164982099 1.200884553734335
85.82079973417866 72.02633438913367 1.1815088019887363
86.53606687780591 72.24301607813447 1.1878052561073555
86.53925526531248 72.20710768483231 1.1964384430297685
78.90673099244934 74.56578485729645 1.1206748750087796
80.22695687257288 73.51706405831476 1.2460716159841774
79.1871128415544 74.35412081933494 1.122944892770888
79.67474314789774 74.32717524995978 1.130047812776703
80.19902448647507 74.23072860574298 1.1391473384313062
80.66531083575985 74.25069737504718 1.147199347358708
81.50462543053914 73.74433450666518 1.2249518966126194
81.1581991307044 73.63822373246728 1.232204557345144
80.75323038058278 73.46453219567728 1.2399534433955404
80.50798744027064 73.70999222230085 1.2454815992904986
81.01972412649152 74.38475129882738 1.153190457774667
81.30110299275216 74.14096953108707 1.1579827019361466
82.10449518827735 74.03671648643245 1.1681562302920072
82.45175817927262 73.73469264775744 1.2084098499250489
81.87579663620207 73.8911131188002 1.2175223671895448
81.81296505815735 74.43417479928539 1.2227049722517385
83.27771888528245 74.01363800903827 1.1728961763004386
84.18453117287144 74.44680503283996 1.1773818088680357
84.10602747089963 74.01763774839424 1.207872439417517
83.33463795420948 73.70306891121155 1.2071323361360728
85.24397488599949 74.03590250007166 1.1823624359709466
86.19583816100273 74.72001218984273 1.1894179795944892
86.15619494170545 73.87874555457887 1.2034890417204818
85.23336398640966 73.7641304431525 1.2054874868832584
86.67167245866301 73.93112690557645 1.1921059738171491
86.67691007104189 73.89892730311536 1.2007448714529023
79.19660211913137 75.94502582849837 1.1238067399926155
80.53520264127911 74.87889235268273 1.2506321332727146
79.58475304244092 76.04839083026742 1.1278391978830609
80.02532836863085 75.9443503780945 1.1350301049847058
80.49014442588717 75.8539421233515 1.1432486090854752
81.02247143115586 75.83538976736433 1.152846325425372
82.10505068131175 76.0906987213 1.226905664549018
81.82777055274205 75.31661175599905 1.2282377385309298
81.54185545923899 75.44497653429933 1.236367069215071
81.16024074661279 75.26936398841292 1.244579740146475
80.86079872061497 75.20699169802509 1.2497990198620743
81.30627477915739 76.05732464017767 1.1577867963416966
81.53595343358363 75.79615339306724 1.1621109591810739
82.37126334719535 75.77842929502476 1.1727618932013506
82.60161378230194 75.4138351697531 1.2134152506675848
82.16093297255128 75.46676852314299 1.220984314947134
83.38076704304277 75.47936688974686 1.1766884184409325
84.3762223182839 75.71951437271304 1.1811594585103309
84.32959724139381 75.43791585803875 1.211387860325503
83.50329326470656 75.43028545544632 1.2114884046521082
85.43689992744274 75.6398138464181 1.1868208889156777
86.33503525190882 75.7890618895841 1.1926933437367346
86.31033690724394 75.30855720006176 1.2069593386528044
85.65114716819161 75.47342310791075 1.2091854019783752
86.85608900340262 75.3998042742489 1.1967804573613114
86.87393483637854 75.51655966827877 1.2042712508207318
79.42484543990726 77.2260646309449 1.126630618162725
80.86099313395457 76.89771759049518 1.2573457643028665
79.85201669576688 77.6938253415908 1.1313098495892073
80.33221346041297 77.55550296114008 1.1395614792662234
80.86302197372366 77.60648170243523 1.1489376200248702
81.30516979220337 77.51690031719437 1.1574432919285877
82.23254079700114 76.87428171149087 1.2289183166467126
82.09351164576123 76.96848810008858 1.2330977888405532
81.8198550256335 77.01500841586879 1.2410291743717647
81.48767894948028 76.81245483135729 1.2483316525664883
81.20211546368486 76.95732767903058 1.25554001109735
81.49274425562388 77.1677418435828 1.1609511853542303
81.75303623005756 77.41766905172634 1.1659630954704039
82.5353280107717 77.4099287550873 1.1767864479142292
82.95154370614856 77.06646799855842 1.2174597473327635
82.39664960880866 77.09380404503065 1.22568119969633
83.68118813345141 77.19964369231592 1.1817728441478565
84.43630768295604 77.31529402553885 1.1850802831368976
84.55894303201124 77.1719985797154 1.2156343701775392
83.66074843879076 76.30228255642905 1.2136938118906437
85.64301842781829 77.19007494439096 1.191273507060427
86.5237680019161 77.33263045926434 1.1973617020922738
86.585294682809 77.00197885516774 1.2104835450561784
85.87382606675237 77.19639173779831 1.2134480805263548
86.976468835434 77.32109007726167 1.2020416690120488
87.01071868386975 77.08302194952734 1.2074133362458
79.56443511039139 79.68635380354894 1.1274338232024652
79.60531296530611 78.99895865256704 1.1293922636928773
81.074635100814 78.00320030233084 1.2621465518018085
81.11768269129628 78.65087508431439 1.2679060469282055
80.00617295513284 79.96467979333771 1.1311982198363328
80.14883077616376 79.36251346034166 1.1352048751821486
80.65750404492205 79.32600204091669 1.1443291311172148
81.1149298340072 79.27448386099091 1.1527003939271832
81.53684378872201 79.01768941521199 1.1612165961316736
81.82177189223876 79.11132966269216 1.1666854577913406
82.56256507227125 78.77971577062972 1.2331909587461856
82.34483151293277 78.60351294491826 1.238106381621475
82.10361478352979 78.57986219308883 1.2451827314581718
81.779084267523 78.43057363789023 1.2533973934621736
81.53252309795447 78.68719113567286 1.2614419586085663
81.49391755518216 79.12057972716002 1.2674993133653842
82.08808944523379 79.06613645934955 1.1720101216479315
82.77182531214049 79.02597625578714 1.181164541310012
83.98709361645655 78.9427976632614 1.2204146763717216
83.07942409681178 78.75570890691762 1.2222876717958444
82.64973717523 78.5897163998492 1.2291753832783123
83.8315763810277 78.90403766289542 1.1862775384890436
84.6928250532296 78.9978761819809 1.190073614134908
84.82203291355752 78.74840131773249 1.219515451934152
85.87208439365867 78.87869871242485 1.196145318104705
86.75818908343142 78.8569829031932 1.2025978653577793
86.82196194699326 78.85601543824956 1.2143273563158834
86.02403893972485 78.58107678052326 1.2169356297613425
87.13342790093047 78.62910004786323 1.2070379973911314
87.11884345482972 78.39393880370264 1.2097248569737364
79.6209328400066 81.37158471180727 1.1227853016413776
79.77123865967255 80.77368233665423 1.126509935406906
81.49703789214307 79.8866821188133 1.27520739350133
81.42967988139137 80.28188009137875 1.2814924495047335
80.23956035139632 81.20066651725426 1.132651209978344
80.43636102688328 80.91670826873002 1.1390285672691596
80.91321369531501 80.91223659241498 1.147878854053026
81.38043489824628 80.8699236596715 1.156832441809954
81.82039013420602 80.7719126271044 1.1659551666809749
82.16096978384462 80.91220999694396 1.1726806532886362
82.79981645495889 80.15663541534227 1.236317286815225
82.62263360752519 80.25207855826845 1.2424189646972041
82.40331358961097 80.22385856599894 1.249253860599851
82.12046919796929 80.13170670586388 1.257558940447299
81.8306485571049 80.12040240865727 1.2659722498013144
81.72924346849955 80.1721756662255 1.2720625790761444
82.38684319250753 80.80201375538658 1.177228333465196
82.99964828097485 80.67605583272464 1.1857161149814543
84.035521716581 81.080598428477 1.1920738642077995
84.22037552205781 80.57451806461087 1.224540777468693
83.32984192348799 80.32217263758375 1.2262434554545436
82.97629290477718 80.41908006070202 1.2329919368552118
84.88700291525096 80.69465705091174 1.1948400709110623
85.14679376998389 80.4502259865561 1.2235808945899778
86.08832623412842 80.41210250380048 1.2006475950410733
86.96189146436711 80.40214968185576 1.2083633102733813
86.9743119998231 80.48298763012251 1.21750748689091
86.27909911609082 80.29582637253145 1.2210236155082317
79.82159193160945 82.9807995289259 1.1188415275391406
80.19624755365642 82.73622803820176 1.1258021313507174
80.3144973726899 82.27028236342052 1.1301587893685854
81.96799165061384 81.38920798110628 1.2809363995482388
81.93230999681823 81.59187828065262 1.2862841132153755
81.63588821972236 81.68488111645718 1.2937308192185055
80.53107047043504 82.7865002535744 1.1348907259133947
80.77242264054355 82.57144717553281 1.1428694297074355
81.25232866506022 82.52728796863627 1.1524382148437706
81.68592280517561 82.49735975054138 1.1617108960888405
82.10535040957978 82.49341601808773 1.1708199948219205
82.41444267762144 82.37819008442996 1.1772212254627237
83.10953134378565 82.05584699738442 1.2408832079155117
82.87950436423927 81.91972581049532 1.2472698311157726
82.65774235878591 81.84787448191747 1.2547839328052184
82.45167825273194 81.86158580811357 1.2622769452264546
82.19935893762191 81.7544545431186 1.2699416059679824
82.10004604693341 81.85720634608175 1.278221906736961
82.63618332677139 82.37774737248452 1.1819515130409222
83.08234976176217 82.23719625395906 1.1891444194185796
84.13772142582812 82.55756192366808 1.1960224980339178
84.38718756832296 82.167244765971 1.2284061116587541
83.51979779261679 82.08220889239414 1.230723938581633
83.2135444873165 82.0319114458149 1.2370845766801415
85.09511457051411 82.36320626892683 1.1997140468776266
85.34326584654733 81.95426618045428 1.2271440465382542
86.26683014031958 82.21365392905491 1.205656944758418
86.95791388460316 82.1196328242975 1.2116867835549565
87.06951014576812 82.13516993953233 1.2208006754874938
86.4264351903192 81.97826193175305 1.2250532047711347
79.94304982928315 84.74607813056346 1.1140835851013386
80.2725543597167 84.4013583989628 1.1210593924803196
80.60080480188276 84.43482776952564 1.1297624260379882
82.32396076528285 83.16806954252691 1.2913254573537363
82.27401345459197 83.24079450167098 1.2990078478403473
82.04031503417005 83.20770587115436 1.3063858895872478
81.97147390217313 83.82019087248788 1.313420895805482
80.75674150404105 84.53675836206894 1.1345311680600678
80.87151905746535 84.36320317710968 1.1391766705136042
81.15100218513042 84.27494612994106 1.1479197133348444
81.53549733809979 84.17623452025006 1.15670523765298
81.98594857641052 84.19333475148866 1.1668979388247185
82.34560869281353 84.15109794906407 1.1752249698935098
82.65431328019393 83.82098502717731 1.1822554234073486
83.31927817892344 83.64197112204053 1.2446867886536301
83.13685433745525 83.60196100199126 1.251603073626551
82.93847202263923 83.48816942223549 1.2586634333618174
82.70308464355749 83.32650772510945 1.2665287058939645
82.51266307850558 83.44231358106626 1.2751646626461481
82.39198884268552 83.21374254771649 1.2824707043343821
82.44642538990219 83.60951091795447 1.2887095051981743
82.88640745307946 83.91741110551446 1.1873819343130079
83.32837585447548 83.88343858895617 1.194271708357896
84.28579410298225 84.04646549267491 1.200179945862657
84.51749753055559 83.78649455461398 1.2323207637204454
83.6473706319332 83.50887395079508 1.2346838198267942
83.40742286048591 83.35353011706287 1.2394342622009396
85.32759659760552 83.81111203488305 1.2041813103139047
85.71701878219936 83.76546224636412 1.2311989134983288
86.33923256929478 83.55762509148057 1.2090217354195931
87.0510899230273 83.65732512589042 1.2165284831271375
87.03609572355339 83.65104285557891 1.2252365658551818
86.63969509203915 83.53799627214877 1.2285088630759315
80.04523289268263 86.41257622879277 1.1095242362993971
80.43098981339223 86.09135277835144 1.1175260333782648
80.71147362538244 86.05861087188792 1.1260888584036748
80.86606360625336 85.87424855423605 1.132160090543415
82.69961557782732 84.9549605398431 1.298371953147848
82.63523182091988 84.81798159673609 1.303175350520126
82.56687454584124 84.82576240576617 1.3120289146948882
82.32218662126019 84.74618607000936 1.3191464239233894
82.24947263858003 85.44319341004423 1.3270822672334466
81.02356964016296 85.99050433083292 1.1370938436598113
81.19437614468112 85.98077904906862 1.144085802444593
81.46491311945171 85.98514560042675 1.1522260465127716
81.79520013716069 85.84525711046712 1.1610432843899752
82.19884672791294 85.71682959736002 1.1704966935011545
82.57817683128673 85.78289394700613 1.1794575392956137
82.94879787988764 85.63849944921179 1.1885566146157776
83.21985509261246 85.93165731482934 1.1946571189272355
83.72914708439498 85.55924485963082 1.2433638130659355
83.57733556530505 85.28382946883325 1.2473657736881874
83.41171444667538 85.36823058213592 1.2557119749380399
83.2043881946834 85.17673480521891 1.2630551741433642
82.99919997694191 85.09549441147276 1.2707878690340115
82.87143162603921 85.21060837826496 1.2800842545299624
82.73778139191121 85.01511968788823 1.2878387029273224
82.71834163985943 84.93942877081888 1.293586736200504
83.40371271789353 85.54828134257829 1.1977761927746635
84.4689448498617 85.54729010447775 1.2045151654160382
84.70883255106209 85.45407761322926 1.2363467242125643
83.86426622222007 85.31428149372395 1.2387078367391495
85.9017347226773 85.41556018334607 1.2107273851287108
86.04202301065239 85.37247601830846 1.2347847192022037
86.6331960221259 85.30321290652724 1.214948222886107
87.06351301680624 85.51302334096907 1.2207606237578563
87.10951951531406 85.34929828557311 1.2287883800049733
86.80412518765962 84.87945654905947 1.2315088510632677
80.00844445148488 88.69281400651509 1.1010365918058687
80.18692576546573 88.07958893022166 1.105563700006324
80.57080514358424 87.91809645910946 1.1128640965262548
80.84226676567089 87.93026601506577 1.122031966217945
81.0461817487743 87.66192522989766 1.1303583933242582
81.28234717323993 87.91953532956445 1.138516203318803
83.00196969543667 86.52682462885542 1.30218889092389
82.99065927386368 86.51729078379441 1.3085094872664595
82.92851180570916 86.43983923091253 1.3168133264988284
82.895447912322 86.49234407064642 1.3246230029715345
82.66660649863776 86.38022423924612 1.3325800874478193
82.57586895284055 86.8079102436023 1.3390785797304636
81.29872634964468 87.57403948660095 1.1408973064436052
81.47767142378575 87.63183024569145 1.1484478008981724
82.14879383984028 87.53602863573106 1.1567298469917313
82.08129768014942 87.54337004649169 1.1661322810387456
82.3917977226986 87.30490199074366 1.1736397299041021
82.80854020144989 87.36964339582946 1.183573930273877
83.18026502930644 87.29069559023014 1.1928435641690627
83.50665736732925 87.53555184437236 1.200676843322871
83.96252281979422 87.0558685149368 1.245946122309826
83.83010025386717 87.0103886405413 1.251833163576833
83.63759664081428 86.96461079841188 1.2606210485476532
83.45196454119116 86.88111419920415 1.2681179625885115
83.24500369737365 86.74390556104524 1.2757485605968748
83.51627732718288 86.64657821496495 1.285539477428465
83.03870789014218 86.74932171828 1.291798389866529
83.0118154407562 86.58707812060806 1.297869243989686
83.22688557402536 88.20226331198926 1.1589090322668485
83.65109418699338 86.94267437201714 1.2031767134009737
84.49426003898921 87.07147125293733 1.2082791154467794
84.94213339408614 87.07617943822044 1.240251698558382
84.07500085539374 86.896988389714 1.2419368331803888
84.61015683241243 87.16648496307107 1.289573680063005
85.98342371993122 87.16762950116075 1.2152549584082184
86.87438534924364 87.61955382832325 1.222132080955522
86.99017739288934 86.98138411425056 1.235965255558148
86.28944511075139 86.97880277474823 1.2385078574859283
87.11427098853653 86.98661380287322 1.2248184097973078
87.19886952635218 87.0058885109692 1.2318430506940097
80.11103950204311 90.34554311977102 1.096448564758524
80.26287444786048 89.62288726697521 1.1003980675497456
80.67952965942695 89.54144767913195 1.108962858800641
80.92515238210754 89.45724661991107 1.1179115852439585
81.15267793527005 89.38044571413383 1.1264057091282615
81.37422332204324 89.39371457580376 1.1353759444171383
81.54771735086365 89.38878364253408 1.1429797294267632
83.29711147658752 88.22884540536212 1.3055462538623706
83.291690024221 88.18928979822444 1.3132088446978976
83.28394371367759 88.16980426050807 1.3212140514387707
83.24360861602678 88.12265777010927 1.3290087769673358
83.18165083771547 88.06684512101218 1.3381826931762792
82.9562450029463 87.9035042382633 1.3451029213381294
82.9095342230597 88.451300541434 1.3527596302898228
81.62790978013504 89.31667939874015 1.146841638318822
81.75189552308386 89.17698039907977 1.1532467508850195
82.4988586444216 89.19004092525134 1.161348500477723
82.3066493023113 89.10949259830342 1.1701099582305459
82.71445378914296 89.17971982160883 1.1798043785956946
83.07678172773184 89.05017959614293 1.1888144691389075
83.4065652934338 88.92227037638088 1.1971125703997703
83.74302138886901 88.9622366987233 1.2056658211191282
84.19618299068301 88.62584916161659 1.248929319516749
84.04497908423355 88.59747311171003 1.2564049620053184
83.87176993145083 88.54093835656771 1.264241763193979
83.66600075433027 88.32413646220236 1.2718925796953933
83.4896068280515 88.38187566494612 1.280207204529334
83.97208430290434 88.36839000228896 1.2902262900964845
83.30551898360284 88.3646677460468 1.2960790456553457
83.29221636501637 88.20777559690546 1.3017302423732038
83.43348387295553 89.13239231334815 1.1626643191921515
83.89279731135636 88.46466535908279 1.2083726459485966
84.85888154233253 88.99866530029831 1.2144345396962364
85.16606520627134 88.70405988082763 1.2440287140072164
84.32854198958995 88.5506842230571 1.2449069418521896
84.80816191798482 88.14788123325884 1.291839837855791
86.03785981021824 88.73138863472161 1.2191450912408197
87.02604519053007 88.77246555496434 1.227699614069135
87.13158302608679 88.6558965398609 1.2374620100151863
86.42300903342684 88.71354079564595 1.2425764413210334
87.19967116003632 87.97539577368467 1.22948629369306
87.23547450094782 88.13195471275507 1.2324068640221464
80.19260967868017 92.0064765610465 1.0918998287888608
80.35585218637729 91.35854957438121 1.0962134234783079
80.81008708097869 91.29093938081752 1.1052850302789334
81.04110177072909 91.25266682074722 1.1137031091185554
81.24724985647126 91.09087717781073 1.1220890923079183
81.43931703030091 90.92946938460243 1.1308055437709534
81.65325598876218 90.9832641633779 1.1398897901906613
81.85634591584966 91.0888757334194 1.1489241938317387
82.02451752881885 91.33612042157087 1.156782984483878
83.62542686101922 90.73030394420178 1.2983682791337845
83.59059114066183 90.33581976416615 1.3017969304716892
83.5784312292161 89.97611464241213 1.309383532504944
83.55054699706164 89.69017538277153 1.3169767314431873
83.57216876726285 89.79549783079757 1.3257906271931443
83.55793826113673 89.74008193833437 1.3340719249714914
83.51697404833706 89.66514300409025 1.3425193644832323
83.46769185413355 89.59262950451313 1.3502071314028496
83.27411213436204 89.47925634946732 1.3580836015162185
83.18522377320633 89.91663275074289 1.36519880930106
81.9579529295337 90.64446041570741 1.1566694020631878
82.85241253521016 90.84545418300473 1.166064295141407
82.53458400694475 90.79216616453644 1.1742976412576438
82.89877709108696 90.61328445987299 1.183224518465511
83.277165080778 90.59677836725733 1.1927966961409884
83.59377052522001 90.5355323396516 1.200955146386603
83.93893045296892 90.540812344662 1.210178176803988
84.64065776615712 91.06157189439898 1.2505809339445566
84.40753526028945 90.3216542889281 1.252664643570402
84.25221674999051 90.18349736498793 1.260109268411223
84.07766570834472 90.18883757976903 1.2693242034246226
83.91669736980165 90.11738684160342 1.276767277074679
83.74170212405642 90.16839976959366 1.2851912010949273
84.23545734404507 89.97858376353823 1.2950547999586828
83.49458848927164 89.69625085676472 1.2989693009633516
83.62780396188425 90.22484259661138 1.1663566436755384
85.09104117910789 90.5689971168026 1.219290561258771
85.4225804553519 90.22778579904953 1.2474382704720641
85.08577848448972 89.9028746994977 1.2956256636485184
86.30847423722582 90.55225664490521 1.2250645215822618
87.0359556316125 90.40168183673399 1.2325804141049412
87.13696425718486 90.23875041698994 1.2402965658421317
86.56395160295169 90.3251665412826 1.2461798066368512
80.36289644724391 93.5751251578161 1.0879758288348684
80.50661652021392 93.06865125599285 1.091813921843881
80.93877886748402 92.98332018775021 1.1018269371080234
81.12702453202547 92.86476387148785 1.1093772390813375
81.35374003551104 92.82078170472683 1.1181986358633762
81.52415734982955 92.64934944710197 1.1261616922045639
81.75698364330073 92.738144166285 1.135954459747238
81.93191633015135 92.7303372328234 1.1445775278990415
82.06917829259496 92.61285516253082 1.1526716780974322
82.20361082289166 92.41713023159215 1.1611324697706649
82.32585089124856 92.71447412226017 1.1666245557982722
83.74156046155996 91.56246897996652 1.3002317030137127
83.76768457964987 91.60098698903317 1.3049197582543006
83.79927853549431 91.51812414241913 1.3136481101129198
83.81566613861047 91.3660290895059 1.3215596285527123
83.85444087249064 91.44510810079964 1.3305370849099782
83.87613498202562 91.53754992698944 1.3387718558556827
83.82916139208596 91.2883559761114 1.3462934264455535
83.79693481519993 91.22350746465118 1.3552169596874373
83.76615241261317 91.2288775810757 1.3637189131496321
83.60831380261408 91.06321538686709 1.3712346952451853
83.54996933445089 91.52057631748937 1.378372806572001
83.11319713874504 92.51352594645242 1.1707828519824628
82.77835451284166 92.53935036069825 1.1790979606503567
83.12077919658286 92.38619930502695 1.1875815525188367
83.4707684051398 92.40108619343248 1.1966795553853642
83.78018323830423 92.25277292665615 1.2051983908267714
84.12023316633778 92.26059775163385 1.2143834640608648
84.44758488921786 92.20955232694348 1.2202970766498173
84.79916780693462 92.23453795791707 1.2532080933017469
84.59660836431745 91.97923829746767 1.2567991584607832
84.44347312052577 91.94301040281164 1.26532235018128
84.30571461266115 91.88957372566406 1.2731110869989528
84.1447506960404 91.75827331598217 1.2805877175166194
83.97022682886741 91.73986246634647 1.288697190824169
84.38722441897416 91.64533364847145 1.2988384938351922
85.26112821578018 92.10440111120766 1.2238631019296022
85.75163069659189 91.83906518752362 1.2509771811774895
86.44722196236354 92.01988210888707 1.229551463106666
86.96295415066471 91.95809521953892 1.235371048768765
87.10228760516654 91.98389293288207 1.2446052768704494
86.67137436421655 92.03704054566812 1.249885534053069
80.55400309497347 95.34309145779763 1.0837890006259878
80.6624961526404 94.78952688119253 1.087886263627143
81.0071615918144 94.6356101268205 1.096506090892174
81.26056249459043 94.66459059825124 1.1059566655535147
81.45830819016558 94.53693000905035 1.11441819155443
81.65790990405151 94.49909471116631 1.123023434659028
81.83839194571016 94.39476862131372 1.131633800463688
81.99361113060019 94.3564572679862 1.1396135680144153
82.15249213680742 94.34991211783036 1.1483226698244768
82.29409842588473 94.20830589866256 1.1569065807667602
82.45530861649478 94.24092359070693 1.1661749543620357
82.64554071791567 94.43252220609106 1.1738907061847794
84.04861635501697 93.54291085016432 1.3037842893181983
83.98753285779884 93.2129140573886 1.3095903360269021
84.04671274641657 93.30203745777557 1.3177730305597295
84.07739808789307 93.20043810630395 1.3264947859367737
84.09727570634688 93.05590788233515 1.3348961744045376
84.13638727543697 93.10056446836423 1.3439199487016948
84.12199122265604 92.95270483646229 1.3515503475577506
84.11384304649465 92.92037520389242 1.3592878540583702
84.07986518910707 92.80620716360448 1.3673403692183244
84.04391661025781 92.74265384905634 1.3756241770793656
83.84477054357887 92.53662194093924 1.3836763768539195
83.8839390449363 93.0525533221112 1.391738970451804
83.37533397358659 94.10109056552888 1.1750253259243406
83.0005598217288 94.16426874969231 1.1837195346104081
83.3571649658611 94.06653739641753 1.192645431678078
83.66054547667424 93.98461434373908 1.2006808618236906
84.00481753110469 93.91208609769345 1.2103588188444498
84.32604789788995 93.90213515853118 1.2192205438463686
84.63584056490257 93.86326860953605 1.2249809107921463
84.967177634154 93.5139262526177 1.2560994044145417
84.77473434764055 93.54935037860668 1.2609185304487058
84.62423522277899 93.47837891908777 1.2695141804819297
84.48639398399462 93.30703022839278 1.276595554647904
84.32684763480262 93.30822963314422 1.2854498777269017
84.16127094896667 93.24458206727273 1.2928085197566856
84.72855812956564 93.2142810399279 1.3034589476196543
85.63683741245023 93.79869096261342 1.2297667702694428
86.07005097121692 93.68131354059243 1.2549032426979776
86.5453433784807 93.50532218941255 1.2339544044442838
86.92838103851938 93.68806238435997 1.2395444139694685
87.06496640066497 93.70231520433106 1.2487125863250834
86.79217134429611 93.30786598957347 1.2524219554992144
83.91672398700705 94.7594427509262 1.4050216370688735
80.64942414065915 97.01398174522511 1.0791419117702679
80.7971548206007 96.43285206354935 1.0842567977073188
81.12449120403822 96.32899276713289 1.0928182105375397
81.33114785992323 96.29952926713302 1.101012794447346
81.52782952333708 96.16598729860709 1.1096109209147962
81.75727830186334 96.25391632380139 1.1188606917188801
81.91963436643043 96.10457899980175 1.1271434806135534
82.10165677840969 96.14008688681614 1.1363462482309796
82.20990329303932 95.8326994451321 1.1438404482027165
82.37989979630144 95.91358381346852 1.1528480117467117
82.50298366776677 95.74054786834554 1.1609932131753096
82.66795405758234 95.86438958022352 1.1702817863426678
82.91901525749024 95.69432258329792 1.1803039016325558
83.06062558886458 95.86462292209251 1.18446884241939
84.35164603269038 95.30599907617547 1.3015206053390735
84.26947046459404 94.90352909548011 1.3058101164069695
84.20845350166336 94.88655323885456 1.3138411295415766
84.2582499616985 94.86926737992363 1.3220698384931413
84.30013140092034 94.78456225165041 1.3307018227574154
84.32573289940505 94.66134849037195 1.3390331235806872
84.33769761900379 94.48891695673018 1.3465417128777708
84.38068515658267 94.54910144693973 1.3557611023616214
84.39515223576547 94.5321466761241 1.3638272215680953
84.39479592113662 94.52871628044562 1.3721203033148173
84.36982246532712 94.4464355553472 1.3801866063842176
84.33108846364682 94.31748019641567 1.3879826232584247
84.19638895659591 94.20635624965212 1.3966588175916081
84.1532450403826 94.55335758111264 1.4039332079993023
83.68385613582568 95.79359199764178 1.1793432764935854
83.17680572113389 95.6411888097359 1.187352346515715
83.54647570865852 95.66860099629916 1.1966114611307723
83.86993455189054 95.62452473996383 1.2052127916058297
84.18338393554825 95.54049077624605 1.214045364881074
84.50534141792323 95.5254902110294 1.2231257569780767
84.78661936043225 95.34308520997443 1.2289877870739248
85.18758149242215 95.29111211058728 1.2602166652374192
84.96269331609314 95.19017000342558 1.2656917606093618
84.84957081421265 95.17337764247905 1.2729083766095113
84.71767427354924 95.19617954032117 1.281731226835626
84.55609801582884 94.96052499794084 1.288627241634486
84.3944615321602 95.0096605808956 1.2971325210108569
85.12579986467999 94.81035654106516 1.308589020694571
86.06334319585146 95.30507364705417 1.2357126715929063
86.80209514224276 95.55355845861129 1.2423194157221231
86.9720800543035 95.62369753418828 1.2548348789620518
86.27836033335053 95.15269417196828 1.25799395008645
87.01312987293942 95.21576190510154 1.2455638151267336
87.05914387100216 95.21086603144855 1.2513079915697185
80.56607254683378 98.8338395530022 1.0750361129994541
80.50720684462628 97.88892568300784 1.0773023282608116
84.02651882235892 95.38543861466475 1.4100477115761332
84.25512134536729 96.20984436261567 1.4180485127278306
80.76506084598178 98.57999623707575 1.0750769663830142
80.96034140127736 98.20209207305922 1.0799038190931085
81.22845701659311 98.04919764399945 1.0885332305036255
81.45975323817147 98.10173273371396 1.0975529547296907
81.63628400411903 97.99009139143735 1.105490087854347
81.82589188953911 97.8551974987933 1.1141346514665924
82.01959231020147 97.8120165381223 1.1236720472337396
82.16664586172026 97.79521521336534 1.1314321461921875
82.31642957700123 97.65028328070211 1.1403279022743225
82.47577844939936 97.72088763392196 1.1488148986754312
82.6010188965952 97.45025667763622 1.1577166343105239
82.75535482591941 97.6351769126571 1.1662754179374646
82.86420236774174 97.42450765704045 1.174175101597286
83.13422767318995 97.38966473814826 1.1824550979352337
83.30695852911656 97.45860779485143 1.1896855046768278
84.55921482251836 96.7012090754411 1.3039941903448706
84.48632839361291 96.41471435552148 1.3087452124446948
84.41212310426982 96.4755376144234 1.3181302726133093
84.45351462122524 96.3662700519263 1.3260694104259296
84.51199432041929 96.38874652810766 1.334544339480049
84.55901334440496 96.34226734587136 1.343053707679521
84.60230878224452 96.34328048715115 1.3513091004558078
84.6275456884687 96.2510849669142 1.3596316761429033
84.63159688967411 96.05021803322697 1.3673855410930669
84.67040689195888 96.13461944642296 1.3763954681002974
84.66286312512224 96.06459167431369 1.384376140384133
84.63241440382484 95.93061872353853 1.3926689368591652
84.63470515242062 95.99313046543907 1.4011538789617632
84.55730740669061 95.82680216248242 1.4093112550099953
84.52111805303245 96.13947585866923 1.4170908777364861
84.03110953010342 97.44484597791028 1.183854335277514
83.49123547528694 97.3739789340136 1.1942809027098633
83.75609046660911 97.2873933902712 1.2011908675209617
84.05929779248989 97.23060847715432 1.2094119276920663
84.42342346638696 97.31642751474101 1.2195910344459076
84.69249803888555 97.10703861415004 1.2272273453021187
85.0500600403461 97.16902635255053 1.2345257975120596
85.39487248669803 96.7481546054074 1.2634299556469395
85.18599850948016 96.97052611908471 1.2697006837169154
85.02090066921362 96.71366590241853 1.2776702594500449
84.89334652248394 96.65975694279017 1.2854157684754919
84.74426764770006 96.6132221883675 1.2937926935337465
84.61994946064378 96.59501085085343 1.3001918573280642
85.4631910852864 96.56894352808754 1.3134288772554306
86.00440390101491 96.99970229098587 1.2396460879798181
86.88472854938638 97.00558270660146 1.247980143334306
87.00009490676094 96.92373446725466 1.255887922347536
86.32395199377842 96.92880832742611 1.2620107877832742
80.71619567407765 100.37062351105052 1.0704551743139574
80.65869393274713 99.83473172745816 1.0734846473036268
84.4375233745578 97.30171311601018 1.423186245880317
84.5584589748069 97.67776438192202 1.4292032935473011
80.948392612632 100.35609874505985 1.0710734255752064
81.07152625531918 99.92139444642405 1.0760352541518734
81.33332956923378 99.75119232426414 1.0844984939175863
81.56522475994105 99.74821496134072 1.0938696281780262
81.76133581838609 99.75211396551677 1.1021886767549205
81.91628989328647 99.50512492215293 1.1102737385839718
82.08351798083626 99.50727264736176 1.1185071878157107
82.25277292603747 99.40714850821456 1.1278381230309038
82.40074589882066 99.38852914489463 1.1359752363794005
82.5525649924371 99.39587425190823 1.1444484124939795
82.69873149142211 99.37857145620562 1.153323903030262
82.80794336087318 99.22299399570166 1.1612596494376115
82.95032301642192 99.24593340424221 1.170105662415443
83.08108264843398 99.18458331494962 1.178431860106038
83.33755590907822 98.99433707628947 1.1858136089742375
83.59165823690368 99.10159600900155 1.196002640938668
83.86626467501227 99.64043802509892 1.202733895275527
84.80909526892903 98.36099455204452 1.306292368656817
84.781912439704 98.34182686134396 1.3150356665409257
84.62915303790683 98.17911231202666 1.3226863658302697
84.67896888083227 98.1354759511752 1.3313160575403855
84.72584070171763 98.08188149776188 1.339336123002097
84.77934788932292 98.01448035696893 1.3476990245628007
84.82258407333084 97.92663729300844 1.355678773747838
84.84458887328086 97.75753454837907 1.363802721876347
84.88642845932294 97.78379448250747 1.3723549249093654
84.91569466878389 97.74423921864671 1.3808901703965757
84.9372410829268 97.71585938954308 1.3887728571031672
84.9524518260722 97.71541481444845 1.3977938613819691
84.93363316847648 97.61509225820053 1.405746643673403
84.90002971291378 97.47083030962006 1.4135422793223196
84.82800640150006 97.43211714656309 1.4219425686951208
84.84375939965972 97.76572432416005 1.4297862069057679
84.2078761386101 99.10311605626795 1.1885095586388252
83.68958428070796 98.68085623493442 1.1986888270809328
83.94780578362574 98.96846231829011 1.2053406175901218
84.26669110372916 98.95384178794144 1.2140954244847255
84.5643574245314 98.81887969710867 1.222410823020076
84.89087515765267 98.77852463505272 1.2316996974109304
85.27245588801333 98.82896057428891 1.2397357739849435
85.64316736654075 98.60253046359861 1.2676246108008453
85.37246686962442 98.60360764732795 1.273951867740529
85.23138945242881 98.44382673012336 1.2822703094402201
85.10334268946748 98.47717687386731 1.290486454349432
84.9713806576656 98.45286750319222 1.29829889614336
84.82247220983132 97.98860615571745 1.3023184543203266
85.6657179171638 98.20785414438785 1.3177181133118316
86.13717191462638 98.56683917536279 1.2443134798119242
86.83877436030579 98.69151003838547 1.2519817646932463
86.96234436061481 98.46760928898024 1.2592230457947604
86.47154373208645 98.4628016096616 1.2651979824996347
80.88499120464026 101.91501153067296 1.0662027030735834
80.84831483219705 101.47311561338525 1.0694693888604954
80.83584185350612 101.07733563079708 1.0742680914396543
84.77109780477292 98.78181891310845 1.4344829800096595
84.88682403470203 99.23053530642004 1.4423677993397548
81.12286364216743 102.11543512723007 1.0672805026310992
81.22175408217201 101.6553809736014 1.0720244083641335
81.37756447807944 101.34053687484091 1.0791196368865794
81.65674009583056 101.39491114757946 1.0896391894696955
81.83086790703332 101.33690926789953 1.0973414190436994
82.02744991820207 101.37872323357205 1.1062913241110972
82.16855118956192 101.17411405812184 1.114550005055723
82.32257013944067 101.12354706534549 1.1228338543438479
82.49315098033381 101.14630213559509 1.1319546534031202
82.62043768755318 101.00089715948346 1.1398657581231595
82.74896688744194 101.01024889191464 1.1477775795825989
82.90334882666903 101.01751094016214 1.1579835963704814
83.01597838625759 100.83923337308582 1.1659409584858516
83.16682077340765 101.02916975820096 1.1742326132395229
83.27188907976063 100.74593539147529 1.182367531439731
83.66347145555461 100.82966138465008 1.1924354875262138
83.8002073805748 100.63734919397342 1.2004821456447174
84.06719253328824 100.87512257740981 1.2073309968535866
85.11756598766522 100.04824654214667 1.3054057074731795
85.00189433612302 99.8816240507934 1.3102390833359825
84.99044158659267 99.8591842412052 1.3179842296675683
84.8195703016417 99.73529673702777 1.3269051737154303
84.88036676504159 99.79577011541653 1.3344040388223255
84.92949036689099 99.75181719568003 1.342680483018259
84.97981655609482 99.67697269389977 1.351855786124249
85.06013144259181 99.785171660896 1.3613754300059766
85.08792424246722 99.52810338800899 1.3686270219744174
85.12633968869963 99.439144148397 1.3772899498227575
85.15346218732853 99.39026125690708 1.3846786181951642
85.16832061669179 99.25065409507717 1.3929352736017409
85.20122473644047 99.26098549283789 1.40183352674026
85.21293579330475 99.19563275951334 1.409704198833984
85.24107627037256 99.33349181366366 1.4183049255612683
85.22616725389045 99.27259323623568 1.426515512053373
85.14943317458383 99.0459063617807 1.4351484815677842
85.12551220339313 99.16917178425261 1.4413778290641743
84.51880450042371 100.65611173784481 1.1926177111496408
84.15290026008837 100.42660003516511 1.2100070793531277
84.43083338644657 100.39372824736228 1.2175780367689826
84.75893623812581 100.49076835127174 1.2264635040051168
85.06817259768589 100.37377767479074 1.2359025163831214
85.49483101847633 100.45262574858629 1.244577227186248
85.83680070728664 100.22326648932801 1.2713762496181906
85.53336459635435 100.12131425854582 1.278197759935822
85.44189361879448 100.09867239578018 1.2864469964251342
85.30863339371673 100.06992856923782 1.2942698197070397
85.17510957070438 99.96646235527597 1.3011055189376444
85.84546702853031 99.78480842377512 1.3221347101808463
86.17935648694714 100.16333998517169 1.2486754882729
86.79021100432733 100.33006684489338 1.2557675167647375
86.91028874852466 100.19055612355324 1.2637405474348113
86.63053382338413 100.36046992057386 1.2690474768897475
81.14144286671393 103.83536299455005 1.062349317348628
81.02030586514701 103.00469246503248 1.0654572566216929
81.05033247326767 102.58428168298312 1.0705763635586316
85.12943734418796 100.49864787124689 1.4490098637188042
85.2954411881569 100.65547452154539 1.4546482058171506
81.33381717461813 103.2835817368279 1.068002588833281
81.50131328660746 103.10701385351149 1.074794662059333
81.74784610672928 103.23670280534853 1.0843681301539179
81.93834382996482 103.0828320528249 1.0933848422545216
82.08762673656209 102.99364489672224 1.101059257252971
82.28734381329535 103.07926054666929 1.1109508353190733
82.4077165675971 102.86868534790969 1.1184709404589281
82.58396490709929 102.79675120577093 1.1284078474601045
82.70665056428692 102.74525236573497 1.1357950676616932
82.85205005496981 102.80056391770825 1.1451495002731806
82.96099582604515 102.65509608611535 1.1531733274407594
83.09557292861741 102.61857102006454 1.161683423039104
83.22045601130851 102.53534404984478 1.1700564262908661
83.34080819372993 102.55625795052983 1.1786324321955985
83.43506469414206 102.36501372600718 1.1870776897964774
83.88328908712825 102.48825750180791 1.1964257047860227
84.0017526996403 102.2618491005628 1.2045208086396617
84.3037629686946 102.33440755171557 1.212665703991614
85.36444335441303 101.74747345698117 1.3080896082443965
85.2200942035633 101.556508052809 1.3145398674182134
85.3054577701354 101.5618690761982 1.3242428676968616
84.96977783997706 101.44806087477747 1.3308825406934326
85.04005241646122 101.37821055786851 1.3383659413060738
85.11219334427625 101.24241867572427 1.347232810970375
85.18950454605678 101.36231583650408 1.3560270341207135
85.23658396221614 101.28744686422189 1.3643696879894465
85.28766804916864 101.25441235396535 1.372264012907953
85.33973708733376 101.09044079833835 1.380944733144822
85.3894204140312 101.0411280083292 1.3891603190020656
85.41696301088723 100.93873145937462 1.3978634055946038
85.45535966625374 100.932498601007 1.4066535819191517
85.48615214637204 100.95356854076418 1.4139374037735706
85.49339235338871 100.7924644937948 1.4235597300684284
85.49120968361699 100.73456496429323 1.4308020804832338
85.49965227477439 100.78487867108933 1.4391766845582263
85.4504658520113 100.60006864759269 1.446857042527008
85.50337157831292 100.9780866692225 1.4548052684378932
84.84591824361036 102.44277310767656 1.1972494145264723
84.43034372546329 102.02650308153 1.2162157782817313
84.68648735464899 102.19673956839318 1.2228182467835589
84.98661947185244 102.19602106497283 1.2314497737675292
85.24519338228333 102.09414246920701 1.2400873623934185
85.70917985468192 102.01629607589194 1.2496675700440336
86.41135280928991 102.64075117679207 1.2563217267040698
86.05443524058593 101.848195699231 1.2746914667719276
85.70955198929336 101.75786367380921 1.2822235935890607
85.63568834303298 101.64572960625776 1.2900561661650822
85.54499485447126 101.80921148744552 1.2985520598661249
85.41695349514387 101.60812702057035 1.3039441093144415
86.26267047778269 101.62452480745439 1.3271971926772883
86.3624873068114 101.21132434372917 1.2524817628019733
86.76960153968702 101.96817411125626 1.2597634266029576
86.85611470103338 101.88453272840344 1.2676683799553001
86.69385187938774 101.49862097970646 1.2713930024961195
81.20688976990861 105.50220082755067 1.0578644639937032
81.31554773495387 104.86322726379018 1.0619666710081164
81.24273396679212 104.25339507439827 1.0661926070170644
85.72316197663402 102.13024007516533 1.4623819461582421
85.65030129719896 102.37024579739399 1.4679833725165867
81.5257028604026 105.02603969540633 1.0662383567278448
81.64558634737361 104.87052809048123 1.0718430732721669
81.8331049652052 104.76659535677076 1.0803376985684965
82.00900384993277 104.76315079846198 1.0881692770941351
82.11464233217364 104.5971443443769 1.0940523265993691
82.31626758069307 104.39167361569868 1.1055534718887803
82.50381559610223 104.55445060771073 1.1147868505790655
82.65865074993069 104.55551636986577 1.1234332852542477
82.79056246465365 104.57549101035343 1.1314124541956903
82.90036298231635 104.43193311720049 1.1397665816235927
83.038092075451 104.37090816280529 1.149108748438312
