# .PCD v0.7 - Point Cloud Data file format
VERSION 0.7
FIELDS x y z
SIZE 4 4 4
TYPE F F F
COUNT 1 1 1
WIDTH 825
HEIGHT 1
VIEWPOINT 0 0 0 1 0 0 0
POINTS 825
DATA ascii
-72.95938652469229 -89.82469001309357 -1.3458452740341906
-73.87756793054987 -90.5747419966211 -1.353075296115475
-74.8699129280786 -90.90407730211815 -1.3596784256972592
-130.35917919041432 -87.3323033625316 -1.7080040502228664
-131.10554501081805 -87.10177569121169 -1.7118819256284696
-74.17189880432102 -90.27905048687819 -1.352841599975932
-75.2928219373717 -90.35292903181671 -1.3593148051588368
-76.6341778619906 -90.09200287239973 -1.3666735200653106
-78.05852624250355 -90.11109849909114 -1.375039817621129
-79.23917702881354 -90.08652020625127 -1.3820268335370571
-80.63518491957474 -89.86149540661091 -1.3900894152611176
-81.86117159885261 -89.9553240106489 -1.3976083839474405
-83.35550498260329 -89.88079803024932 -1.4065316340241831
-84.46197198992175 -89.82316102583076 -1.413192620349945
-85.78207723587114 -89.63343408841494 -1.4211232400548357
-87.03201675823796 -89.65631876603089 -1.4288708656196822
-88.28948935344165 -89.56764548788125 -1.4364701749230402
-89.55414393272589 -89.52576234747531 -1.4441946791954703
-90.77856381368935 -89.38008445929856 -1.4516570986657096
-92.11082613223641 -89.44019466035815 -1.4600737878227916
-93.5016808574282 -89.19674852374062 -1.466371006759499
-94.81701035533396 -89.29706121293233 -1.4745120658868158
-96.01750284973663 -89.11512657819048 -1.4805425281987274
-110.06071866615994 -88.27465294340071 -1.568511998181433
-111.02475569814698 -88.35550315343008 -1.5760865229459007
-112.40248446888884 -88.20637555304037 -1.5848339823945699
-113.27064478934035 -88.20242985888261 -1.5930696766785561
-114.38230665532085 -88.15901333781787 -1.6001329077689492
-115.72923012209758 -88.1583315430906 -1.6087912874738204
-116.9041888440343 -87.91211097271233 -1.6161970935510064
-118.12967950634739 -87.85959686817178 -1.6241938455802671
-119.26757080338712 -87.7736559249023 -1.631560623736566
-120.59904237667607 -87.80222427822557 -1.6402590162979083
-121.79148595120537 -87.72706798759866 -1.6480085849887587
-123.07728426956777 -87.69489946245365 -1.656555125126621
-124.31769876043604 -87.56899437205803 -1.6646995931128952
-125.32834650254068 -87.43929861535409 -1.6713336359023232
-126.77181304000976 -87.44906566159398 -1.6811015368627364
-127.81475521644161 -87.39495535213523 -1.6881988586807306
-128.949781586077 -87.2196038415824 -1.6958252662823083
-130.11704788877412 -87.27953886697912 -1.704116589277127
-130.99974124355356 -86.79602041592202 -1.7096588081769548
-94.01142275443055 -89.26555671532935 -1.4631618223753404
-96.75638770759811 -89.36341373447924 -1.4847355004647635
-97.66245452213568 -89.10880910793732 -1.4890684535601344
-98.97682598315312 -88.99015717444172 -1.4958985673413847
-100.34105330448155 -88.96745861632988 -1.503374942371244
-101.89902594589364 -88.91523321137224 -1.5107358825941646
-102.69086789693188 -88.23867021919922 -1.5111116601953924
-105.61631726831648 -88.71112752440976 -1.5335771481622813
-106.58998439516537 -88.67061502812331 -1.5425872657533386
-107.72245580021978 -88.65711966950894 -1.5507993227081815
-108.76412535665321 -88.36682311513657 -1.5584576173152775
-109.59375916885288 -88.4741369684398 -1.565009899829893
-113.13702685419452 -88.13823711734659 -1.5831648730791008
-103.05444443196428 -89.67502221601103 -1.514199809543456
-103.73646085166678 -88.84965786455177 -1.515850358299949
-104.92173020845817 -88.8137879610922 -1.523302774275955
-105.62500836724581 -89.12351214585088 -1.5292724696111677
-71.2928606426537 -88.2861366124857 -1.3337615204358786
-72.31380787692464 -88.84496154101659 -1.3400568942358264
-73.26426414375536 -89.3667250332065 -1.3471267427854556
-131.398229994406 -85.5772744475369 -1.710607243161333
-131.99532333682785 -85.25772575154235 -1.715112649529273
-72.8831670922323 -88.6311131423692 -1.3424274479670373
-73.80745017259144 -88.70083539624288 -1.347893439327835
-75.12609856843149 -88.67952914885316 -1.3555538560058333
-76.28377750717794 -88.57082363445653 -1.362183536857848
-77.24805533482251 -88.64589974385504 -1.3680215254928316
-79.055030019183 -88.67753450581802 -1.378914973000102
-80.3054800364729 -88.38753525430909 -1.38605975326728
-81.56552156131085 -88.26128953336058 -1.393528545528285
-82.71198034407624 -88.12602608296405 -1.400382467735037
-84.00693225496175 -88.14208693811169 -1.40842895031146
-85.39695829139251 -88.06455944573415 -1.4169099333299717
-86.67016689533682 -87.94336400993521 -1.4246072307611013
-87.96411097271223 -88.0109102264889 -1.4327422725712597
-89.0902113585671 -87.7735085137457 -1.4396172841846844
-90.44043356391047 -87.80729000401959 -1.4481391300465167
-91.70182776363787 -87.8172935378647 -1.4560535366567977
-93.03963285479331 -87.63715616406152 -1.4617749771958142
-94.46290264253992 -87.6151225314233 -1.4702580039297708
-95.89062433843567 -87.60784201959866 -1.4776520798578348
-96.59809034423027 -87.16626535938151 -1.4805645645026075
-108.83518260038004 -86.01529309879072 -1.5566366848152875
-109.58352930803795 -86.69346228977463 -1.563300150809285
-110.76648274085007 -86.79643380622818 -1.5727174151196666
-111.83830674522365 -86.63760396041083 -1.5797400589214337
-112.79437846101052 -86.54034960365013 -1.5875432994399776
-114.04736782908009 -86.51667606468422 -1.5965869190408348
-115.26929408474255 -86.27454297449778 -1.6041924650770243
-116.48322102835893 -86.37311203640529 -1.6120058603329968
-117.776076072882 -86.24897889680575 -1.6201742267851236
-118.98050603883222 -86.1001584073716 -1.6278376531013425
-120.35482893558085 -86.14985191570764 -1.6368973106616298
-121.56425731600511 -86.09698724889347 -1.6447030925558535
-122.68961130017914 -85.96343747538009 -1.6519086428582512
-123.79110663786636 -85.83458648586478 -1.6590465321866203
-125.18393770642882 -86.1681723984679 -1.668747036455925
-126.6037785054731 -85.74424304033397 -1.6777499723616096
-127.4019405260778 -85.80777694082516 -1.6832190007360757
-128.75061864767363 -85.65665706805262 -1.69223684355708
-129.83247517284534 -85.5389919546904 -1.6995624450861644
-130.80861706980005 -85.47768516821314 -1.706271603315213
-93.79548931266915 -87.6736484183468 -1.4582801449552785
-97.35513628109729 -87.50857159544914 -1.4849982536892907
-98.58868676931009 -87.44003892429437 -1.4910476629809535
-100.00351023332189 -87.35922753874976 -1.4995216534744884
-101.7026667346754 -87.18025735377078 -1.5070802843595394
-102.88261919961094 -87.0329239191773 -1.5103252753602792
-104.48074675138278 -86.85961292054344 -1.5197862655397674
-105.10428439684561 -87.01621424019137 -1.5286507489702177
-106.17907542086938 -87.01816902722851 -1.538276272117852
-107.42016082861682 -86.78246686878815 -1.5460107724274479
-108.4635002375902 -86.81317105084585 -1.5543733499619372
-109.11908996918334 -87.07686680290891 -1.5599496604185508
-112.93701760437227 -86.7070479272364 -1.578053497060656
-112.99959011130657 -86.17009317450257 -1.5801108062601503
-94.26966679443402 -87.21900591705509 -1.4542171648015214
-102.6018025239639 -87.24921334117758 -1.5055478608184945
-103.33089412061194 -87.3755235872163 -1.5104206308086954
-104.40669594767557 -87.54914283051188 -1.5194333487364775
-113.58017985242427 -86.332901923287 -1.575684185580518
-69.78519001071817 -86.52767599825012 -1.3220035969146784
-70.78796982100724 -87.13696077410019 -1.328064446792291
-71.87981155563632 -86.98843038498083 -1.3338027684231608
-131.09690673378742 -83.71087534036793 -1.7056883239541298
-131.9113001618776 -83.79912000664365 -1.7116390616268102
-132.78073674954072 -83.52743407837076 -1.7179654557605335
-72.49117011602709 -87.25108257461648 -1.3378119844058185
-73.54549420525234 -87.04708025497897 -1.343668120271825
-74.78856526217828 -86.90326064079008 -1.3507619345283874
-76.03457632796432 -86.792872487593 -1.3580554922882628
-76.90488398176095 -86.3805726719423 -1.3627283845214309
-79.10092735471785 -87.25608155478852 -1.37722417019468
-79.96109733668013 -86.60529197412212 -1.3816263534986657
-81.19048404847072 -86.5723933454492 -1.3891862139984414
-82.29746566622441 -86.52768291661434 -1.396004086372049
-83.73697229157233 -86.45040437561065 -1.404810122741643
-85.00027640940894 -86.27187251311948 -1.4125421380341825
-86.20471306037447 -86.28413834947472 -1.420154760287809
-87.37937478529975 -86.18782665385766 -1.4274763166301192
-88.7319985217936 -86.13840375135224 -1.4359187050523576
-89.98211189913879 -86.16479239204048 -1.4437624644930194
-91.09965915729042 -86.03192319773258 -1.450910446202467
-92.76627430946428 -85.96727244157076 -1.4573743325333892
-94.0277560960248 -85.97682895530689 -1.4655161744124123
-95.38551287111493 -85.88535492587536 -1.4723746985103774
-96.37077050017875 -85.7604708136271 -1.4772354792787856
-108.66006964083283 -85.32469243828263 -1.5547058388479882
-109.18087615592145 -85.01238623669038 -1.5584321556626581
-110.30425886742809 -85.03502795462016 -1.5674282834631792
-111.37222423509549 -84.95666607493645 -1.5745557971989173
-112.37097018483198 -84.97171102017148 -1.5831573971888075
-113.58367901615844 -84.74593060537778 -1.592221571941821
-114.8381992410552 -84.78742395331955 -1.600140470002584
-116.18877322849204 -84.72430122983009 -1.6087412063425663
-117.36833911550937 -84.65537446392148 -1.6162088110446826
-118.53853652799938 -84.54389423471429 -1.6235533164055607
-119.85314441855705 -84.45344012236241 -1.6318469815247332
-120.96679960590832 -84.29478655943922 -1.6388980739266583
-122.29545453628032 -84.40585054966184 -1.64765876185527
-123.4128391268033 -84.32942601739798 -1.6548371963830455
-124.51753838097586 -84.10254853849494 -1.6618099861027353
-126.0840068532977 -83.73244235388334 -1.6717650491810823
-127.2538461491218 -83.96173868912376 -1.6798531514789643
-128.34204088528725 -83.97537275552438 -1.6871757285208018
-129.59198873416588 -83.96805705193532 -1.6956991698689097
-130.44960305812657 -83.75709695735354 -1.7013205526798394
-93.51850125924065 -86.04386404940996 -1.4538386994398145
-97.19629970529351 -85.79145492100608 -1.4805867029667215
-98.6086382497824 -85.77777287486309 -1.4875509633988808
-99.56235740507644 -85.73931515897941 -1.4946536946485012
-101.31081265016036 -85.62819197686645 -1.5031013672933113
-102.5021645115861 -85.46280122919714 -1.5070022025724432
-104.05325441663415 -85.5495372102553 -1.5163196487820145
-104.68180726628887 -85.44194129705852 -1.5248674652695322
-105.6994056694971 -85.23312468929932 -1.5332890939839006
-107.09357426146998 -85.20430971645634 -1.5406753689101287
-108.17437682111982 -85.29250975603775 -1.5492713921912202
-112.43099328307316 -85.0254195365491 -1.5719866323426548
-112.96024661674926 -84.93242137842533 -1.576260012879675
-94.18100275123766 -85.92646607146908 -1.4498277934934416
-102.41375930888108 -86.0922799957263 -1.5034880131303068
-102.7741209504871 -85.8962688344795 -1.505538569137304
-113.50464004735865 -84.98716474203113 -1.5712711043172225
-113.6151347002353 -84.65355737879004 -1.5722513478048548
-69.2817563327356 -85.48461746352851 -1.3170537056127076
-70.52001478618814 -85.43483337690901 -1.3233101265582001
-71.68689765854712 -85.32738670179955 -1.3299701759195237
-116.31625904143037 -82.2405325433991 -1.6092749062234846
-130.624644860669 -82.0740437202506 -1.7001920320958392
-131.55749996849678 -81.99218422943747 -1.7064241496597115
-132.73354073345917 -81.93642552878228 -1.7149273152071225
-133.03305141668983 -81.20367639493512 -1.7176517957102548
-72.32118343214134 -85.52001408123864 -1.3340450978769136
-73.25581052214454 -85.32429503213994 -1.3392692120265193
-74.36674840800352 -85.34004277113686 -1.3459389599396363
-75.82539351893703 -85.28030600493169 -1.3547097419809495
-77.00619863421508 -85.11732030838657 -1.3616830419929131
-78.2441650199992 -85.17486131242279 -1.3693503851579407
-79.57255612262396 -85.01005089662107 -1.3773987927043134
-80.86344731564688 -85.06355617893132 -1.3854876757444836
-82.01641906237784 -84.92343417029028 -1.3925738712590492
-83.2599269738428 -84.85411942646755 -1.4003592761127683
-84.57385825105386 -84.88882740641488 -1.4086878528299016
-85.80223846124954 -84.69417130752738 -1.4162429213231233
-87.00689318046437 -84.49005226337741 -1.4237871307856873
-88.34888819075519 -84.84132706709606 -1.4326914086903018
-89.58982051982741 -85.03544053710829 -1.4407571731935285
-90.37603039179824 -85.25142585631721 -1.4459919459066892
-92.41072381815798 -84.43021507282413 -1.4532375170712897
-93.69466792755361 -84.33498114292127 -1.4612071384116416
-95.25997807878352 -84.23231419328985 -1.4692743126489667
-96.07066217637453 -84.26558983808269 -1.4732222476662464
-108.34713099982812 -83.41404073007415 -1.5496328944332716
-108.79781653361012 -83.34955689345148 -1.554015531799974
-109.88467588613868 -83.32817678236621 -1.5624820236154102
-111.0008188526528 -83.44608314506661 -1.5700324413160953
-111.87774499358017 -83.39658326150106 -1.575007570951923
-113.66951755593412 -83.83538746102488 -1.592494192337373
-114.69507215707578 -83.4535269746867 -1.5984323235355293
-115.70632156861365 -83.04098131986481 -1.6044237992294246
-116.92985577738905 -82.89854276347074 -1.6119813882918048
-118.09749961190651 -82.76211357881243 -1.619254466724975
-119.32101962413161 -82.81500843080562 -1.627099837948825
-120.67620949814739 -82.84426522019515 -1.6357271146940233
-121.89214574523203 -82.67260166366415 -1.6433246765290426
-123.1472974170261 -82.65672476423768 -1.65136016130668
-124.33234892275553 -82.52814954875547 -1.6589142446704068
-125.6850704655146 -82.26212008103474 -1.6674317924301438
-126.79825060272162 -82.41127950243828 -1.6749353499998065
-127.97181935704455 -82.39326173884999 -1.6826977159397924
-129.24955164324322 -82.26626580019206 -1.6910758055728408
-130.07410745163 -82.38235278006155 -1.6968481458529499
-93.11631634277705 -84.41486922403095 -1.4491198944420127
-96.94545126835882 -84.08374742543809 -1.4756698798287917
-98.23419967269017 -84.14785565457882 -1.482131703133856
-99.26425960702686 -84.10647329209768 -1.4903405739369275
-100.5359851814602 -83.96653873180361 -1.4985158650415231
-102.01247643060876 -83.92666829419055 -1.5034126721959573
-103.51034348383072 -83.8751392842785 -1.5119714597717109
-104.2820732398325 -83.73133206162382 -1.5212706784970584
-105.46803690476239 -83.65228838583052 -1.5296000327039945
-106.87785800960832 -83.69161068774572 -1.5364500756531128
-107.94603016801409 -83.48660424006118 -1.5444726109456446
-112.0200973540473 -83.4777608587888 -1.5677190871449695
-112.7804996208463 -83.31594554043167 -1.5716498202382623
-93.96510599141257 -84.3943957862106 -1.4444757901509997
-113.40091762867861 -83.42617156987035 -1.5655731971663374
-113.6148391587649 -83.05168844778959 -1.567177147126785
-68.9518739546453 -83.95716117116716 -1.3121103124515854
-70.16096657075893 -83.85241290754236 -1.3186089343928227
-71.50874219220663 -83.91470534552576 -1.3267870708257115
-72.4263227094225 -83.231984430244 -1.3312817032984299
-82.86817314157106 -82.5215641076001 -1.397269047419365
-83.96362271483336 -82.91701440274934 -1.404560995992425
-84.74351001102086 -83.2074838942129 -1.4100750907297317
-117.08408403717152 -81.82954914533185 -1.613564498056563
-117.80343753945422 -81.43589647948147 -1.617720175275718
-118.75114307963008 -80.89390403638224 -1.6235667852140274
-119.52573598832424 -80.48809834509662 -1.6277356016435947
-127.54667498193496 -79.90979602507096 -1.6770629464713505
-128.7917830875193 -80.16912836310931 -1.6854763519187763
-130.00931432103286 -80.45856172695468 -1.6938924358361578
-131.32219931583757 -80.45240482325173 -1.7027527561315097
-132.42217345822647 -80.37195165262384 -1.7103059975525783
-132.95746534091492 -80.22703349164073 -1.7149715181591878
-72.25052769085151 -84.501124293674 -1.3320599766634296
-72.8967466837833 -84.00791001734522 -1.3351977781898259
-74.20211688435242 -83.69125962334523 -1.3427413429813084
-75.3979934354823 -83.70596684158865 -1.3500990320329893
-76.55998746733977 -83.47855961898435 -1.3570497183763814
-77.86118451907082 -83.54606724556588 -1.3652185775582346
-79.11403814437715 -83.32156429993165 -1.372881240565714
-80.41900714812562 -83.3105938447728 -1.3811250553793262
-81.54515195448712 -83.17965082050141 -1.3881350257292375
-82.73516446624552 -83.13027035048552 -1.3956039619938787
-84.27868357854601 -83.38214932676317 -1.405601627979079
-85.40919558635284 -83.5825620473224 -1.4129061206195266
-86.98270407881432 -83.50092324308123 -1.4227829766343683
-92.06561054794456 -82.79622196107749 -1.4482800299562066
-93.39222100825893 -82.59774373017463 -1.4570102636201274
-94.75374591981453 -82.56916524451783 -1.4642070694909024
-95.71753604542414 -82.693842172408 -1.4682762568524572
-99.40462319243818 -81.6286380134902 -1.4896965047141566
-104.36258910660781 -81.43128907411042 -1.5209584576571331
-108.50800855934665 -81.73723848002287 -1.5499140892719008
-109.59394136266768 -81.78416079040565 -1.5587472723127658
-110.66573473246217 -81.65948609683588 -1.5645056353262814
-111.50088828254184 -81.7314566062017 -1.5706956947386712
-115.20729063445921 -82.01461083606874 -1.6006098563002258
-117.06742564130718 -81.9735230452545 -1.6123799407473742
-117.77473409164803 -81.71729193610368 -1.6164165269122706
-119.01054887207606 -81.4010109251681 -1.6239536631012537
-120.22495301375679 -81.06931281432128 -1.6314121097967378
-121.40621002221327 -81.00975149358982 -1.6388591548133014
-122.7221881142332 -81.05773282303777 -1.6472444959328725
-123.98691244698693 -80.81705984220798 -1.655073368402048
-125.15820485628176 -80.76014136650232 -1.6625242063827614
-126.46395629726226 -80.75069928731487 -1.6709426719318772
-127.58725248599399 -80.77270646577111 -1.6782549644469724
-128.85093819847665 -81.04450146730363 -1.6868927569426322
-92.85392722210702 -82.80405126935997 -1.4446810680103104
-96.5258262485849 -82.50924889226701 -1.4705469345562125
-97.87637691408364 -82.50462478830164 -1.4769435824146773
-98.94103243225678 -82.45564511309576 -1.485451234790583
-100.07557627020408 -82.48112435887676 -1.4943936032503764
-101.64678704998917 -82.32927373799983 -1.5005711932880528
-103.0397948756114 -82.1703525114988 -1.5080967448148443
-103.8759390844267 -82.06395532880403 -1.5175142464476479
-105.28642552080221 -82.0540910573395 -1.5257346460523855
-106.64671483839693 -81.97111699873336 -1.5319058540158903
-107.7447063940999 -81.84751000292803 -1.5404854166648305
-108.09929840194289 -81.5224178557875 -1.5445079315433128
-111.65527737443128 -81.66151259090503 -1.5627507648007968
-112.51332946178763 -81.71507355991615 -1.5673416381233467
-93.79857589780269 -82.75623558882003 -1.4394204978174159
-113.12846338400317 -81.74640256253814 -1.5601664168069138
-113.59800473690068 -81.77153258475283 -1.5631555860225335
-94.1811291107133 -82.58150784182746 -1.4355698508128436
-113.81552971761637 -81.28296217124453 -1.5578567408462314
-114.00175668563631 -81.35193932083389 -1.5593981849414593
-68.54637347558923 -82.3332779938863 -1.3071372935594927
-69.83386910255496 -82.33789882171554 -1.3144840548198928
-71.15329408918748 -82.21336337097253 -1.3222209180319358
-72.38058782898206 -82.08175866882524 -1.3295644317746853
-73.66174451571595 -81.9205067149335 -1.3373302454563087
-74.82234044750983 -81.68008416129472 -1.3455354284514862
-75.92356361668499 -81.56032001360916 -1.351817944007143
-77.39152347578867 -81.5070715809059 -1.3604781465760385
-78.65136596114766 -81.37657773766489 -1.3685059060864444
-79.82444337344131 -81.53406285757217 -1.3762058326950863
-81.23558465553347 -81.91704283186475 -1.3859457290800925
-82.15518844787461 -82.26922969413799 -1.392705083435463
-120.21889723156728 -80.13222843076225 -1.6313193412010532
-121.26154913304572 -79.55444653443661 -1.637191754037249
-122.11342307823017 -79.33069502069114 -1.6423441024750194
-123.52790166008639 -79.24667523322026 -1.6508939504971882
-124.73810838127716 -79.15221440799911 -1.658458176736571
-125.74561486240012 -79.13147914246152 -1.6660496794792083
-127.33046067643295 -79.02739636830188 -1.6748054600281697
-128.41974233184936 -79.01520660446934 -1.6817835660632277
-129.70648298002112 -78.8207069658724 -1.6899402386525344
-130.87982881476663 -78.7630333073302 -1.6976865152029017
-132.03597768365185 -78.65098092843303 -1.7054250454817723
-132.73913242169886 -78.3702828585728 -1.7106612366901375
-73.92760460103406 -82.70226337924504 -1.3398232912135684
-75.05499315770348 -82.52539852108215 -1.3466806890597434
-76.30153431516692 -82.39906306035877 -1.354342352342318
-77.54207023921363 -82.30295218881653 -1.3620866132784437
-78.86941414231947 -82.28756580616354 -1.3704781133709212
-80.14033575586649 -82.11845218355079 -1.3783804532854842
-81.09013177616094 -82.08675329298512 -1.384342585143501
-82.10988073353938 -82.23107688416063 -1.3909459117750202
-91.81823936130696 -81.06167853071041 -1.4439530394264304
-93.07352234203876 -80.98666668313523 -1.4529583519192983
-94.4179347273441 -80.99906823983667 -1.459816193781174
-95.2847453586745 -80.69355465122716 -1.462090158394244
-99.52013244888325 -80.49652614586941 -1.4889512019922186
-103.5194698778637 -80.07801962529149 -1.5138474093173613
-104.10778194762142 -80.53982734018965 -1.5182277554289412
-108.33798063494874 -80.24901588640265 -1.5470807727819944
-109.29657766640808 -80.13406184159368 -1.554873068479047
-110.2694357992219 -79.9904618023898 -1.559915457720551
-111.14630851306873 -80.00032897892382 -1.5661461498191684
-120.47331620105015 -80.19850868301573 -1.63225033670341
-121.39006590540477 -80.07093633943519 -1.6379888520966162
-122.2594951871711 -80.03335961817638 -1.6434740000606967
-123.77075699162222 -79.9657947293035 -1.6529923414328185
-124.72266480644745 -79.96831427727196 -1.6590312208012763
-125.93899581118278 -79.93098218861596 -1.6667552888516923
-92.61342268380488 -81.06607814785951 -1.440101024583535
-96.19713691854164 -80.91390902647888 -1.46571187190756
-97.57579943636597 -80.87932779441367 -1.472219211969964
-98.64782204578347 -80.64749959881598 -1.4806161731285625
-99.7388719126258 -80.89602526813994 -1.4903601668653028
-101.08659694039041 -80.55637451544293 -1.495666099086342
-102.52133960076057 -80.54607258342074 -1.5038603127532604
-103.1566224825403 -80.55993875323347 -1.5109249105898654
-104.94899627955819 -80.34819440767015 -1.5208679886374834
-106.27789545093546 -80.42343644206983 -1.5269520485602597
-107.46817866406322 -80.29611995818546 -1.5358059892849127
-107.891427869444 -79.94468290524554 -1.540560667194789
-111.29494361938688 -80.05831624443377 -1.5585078267840862
-112.04756729291512 -79.86756002042819 -1.5627520063021512
-93.45380861928392 -81.20171149870269 -1.4353326429132875
-112.64440713762262 -80.01808371536643 -1.555399214517706
-113.31161978302728 -80.11468362643842 -1.559061528412295
-94.14019118843521 -81.02649060037513 -1.4304591134446523
-113.62263745659922 -79.905818284921 -1.5532559264038988
-114.07832473043311 -79.80772070556796 -1.5544058907903142
-67.45200358407016 -80.74116475989864 -1.2989590467252392
-67.97253678933184 -80.62329847640541 -1.3012788240235542
-69.47882936259205 -80.70375586775761 -1.310102764845931
-70.79804613658962 -80.55457309948893 -1.3179690033288063
-71.97827348740486 -80.45531120694748 -1.3252616661145162
-73.25246627097417 -80.34208577036806 -1.3332632607687611
-74.45697844075461 -80.23197667980435 -1.3425595377790993
-75.63500667661383 -80.32670949698044 -1.3492610305894646
-77.05541913546264 -80.5643763352576 -1.3577656385638956
-78.08851419353657 -80.8115642949297 -1.3648222977672686
-79.30798750643737 -80.27502255948795 -1.371547480195709
-121.20051881923087 -78.06390184117099 -1.634988499755018
-121.35163452682127 -78.41765136170484 -1.6370959776489826
-123.51920065361941 -78.29702466843544 -1.6504832855589475
-124.50257074368972 -78.05105047031518 -1.656442650265808
-125.30609757916359 -77.60619926114842 -1.6627154144634262
-126.67665178686345 -77.26433671221474 -1.669263291696837
-128.18734965540185 -77.42830203665 -1.6787763850392612
-129.3388956525519 -77.2849412493579 -1.6859306889471504
-130.5085937501313 -77.10115489807637 -1.6932907234259111
-131.72655897702558 -77.06425869197386 -1.7013245638719399
-132.4940030358303 -77.0136119894932 -1.7072645996879607
-91.59521151446364 -79.41496704226293 -1.439943206735583
-92.7251556176613 -79.36487761662482 -1.448774129889578
-94.12860020373078 -79.31915650154002 -1.4553581890305483
-98.56380815698917 -78.39770424821504 -1.4793088431304273
-99.20192370668694 -79.000405112904 -1.4852384153211884
-99.95493743513337 -78.4817470574574 -1.4886519586436207
-103.12374762351426 -78.85356931365209 -1.5099622124303156
-103.8549542719962 -78.71019006167019 -1.5139103943732226
-107.94744066542356 -78.53412995831894 -1.5415790414203712
-108.81637136135518 -78.37066880729986 -1.549639176881305
-109.92120386141411 -78.31852020175407 -1.555602365064149
-110.85595713949172 -78.2848033261519 -1.5613823386956975
-92.32581725438837 -79.51611539834016 -1.4354801576190581
-94.85450745930171 -78.5212445596201 -1.4555573042567815
-95.90600487060189 -79.37166302672901 -1.4612123294774955
-97.30310400609645 -79.15242488657356 -1.4676925745198421
-98.3516781145375 -79.09840297270327 -1.4764684017828127
-100.78440554537902 -78.97272622385469 -1.492498293372815
-102.00348642024079 -78.82506274288262 -1.4996705676977298
-102.67046879084234 -79.10231098425497 -1.5062444540291982
-104.63513706465366 -78.74925793511466 -1.5165682084642864
-106.10567776894416 -78.70472541641983 -1.5230908793854834
-107.17068427505569 -78.55979799390877 -1.5309219584369325
-107.71444551568986 -78.58966786035538 -1.5371688063126754
-111.07857540154863 -78.34111244527271 -1.5536591256506587
-111.85305603411973 -78.41230420632024 -1.5585722823363777
-93.16477022688923 -79.50326853723907 -1.430115810914997
-112.31106690369974 -78.3446675918398 -1.550791437082384
-113.05527150272056 -78.33650878777446 -1.5542002738731902
-93.95625725016912 -79.05196408729122 -1.421397805687885
-94.07416985391303 -79.48237514701857 -1.4254970370418385
-113.55442273039955 -78.40718708924862 -1.5481638742219128
-114.0115040084099 -78.54187987481455 -1.5511185371556067
-94.23053492505521 -78.91165947959841 -1.4195400572952952
-94.60741231282971 -79.18258027419708 -1.4204557518430339
-114.27454869625657 -78.042318275903 -1.5452840443871045
-114.63931555612837 -78.31096039654412 -1.547087525936747
-67.1981400472144 -79.5577497472465 -1.2959826660409375
-67.75690124083815 -78.92245526932713 -1.2975645871624732
-69.14102858237065 -78.78775055973325 -1.305700599159114
-70.34244273132674 -78.88728566528927 -1.3134380404098114
-71.55108627232671 -78.9196581106309 -1.3213498990664614
-72.78692134628436 -79.05476046989774 -1.3295575574855687
-74.09639028921546 -79.3067546539749 -1.3382660286275578
-74.8889963687682 -79.01853311443959 -1.3425931962999935
-100.88479815433936 -76.35548861019794 -1.5090936509449522
-124.91268068592491 -76.57910068491961 -1.657685814099696
-126.8407919520708 -76.37841515767458 -1.6699122955846493
-127.78098304845868 -76.04675124382935 -1.6755673350830471
-128.9557557653346 -75.59627650962614 -1.6822284412286883
-130.0697502218008 -75.47822929917857 -1.6888771542885308
-131.40806395859278 -75.55558282133771 -1.6974621880249552
-132.11232695079084 -75.5833499661102 -1.7027824397927267
-91.21822300945013 -77.76746104860295 -1.4356471631647174
-92.31071079766424 -77.68807123117274 -1.4442397195192087
-93.78648895229128 -77.70675875920293 -1.4507812901731054
-98.2804595501865 -77.26426722263831 -1.4760426778475564
-98.75735678361696 -77.38560463055782 -1.4808451949069916
-99.95540821105182 -77.13571898210093 -1.4867610939457812
-101.84342609180266 -76.8016390277144 -1.4981217727614804
-102.62929807480734 -77.18448313738934 -1.5052175220416353
-103.41299058123818 -77.0958212747998 -1.5097784514886206
-107.71968875443383 -76.81687629701227 -1.5372293521207039
-108.46412940612514 -76.76215450862007 -1.5456276375551283
-109.66408689540664 -76.72050835801375 -1.5514607804334035
-110.51794314945255 -76.70699198019797 -1.5571763200175492
-92.02616160483376 -77.79302474744283 -1.4308060078859604
-94.64592786598189 -77.6856779715173 -1.4529177034654959
-95.59759882960395 -77.60351714168159 -1.4562752384124833
-97.06498140495377 -77.4605010081257 -1.4636115316663463
-98.00555898087742 -77.46088585254283 -1.4721514903634945
-100.67259996678554 -77.27401009671725 -1.4902448256009673
-101.57466520807873 -77.39330875545993 -1.4960388690321205
-104.35727561790553 -77.01637327400536 -1.51228612132301
-105.8005253441249 -77.00660282425986 -1.5186037940807076
-106.87104539038091 -76.97827510374344 -1.5263704616297824
-107.4398674743395 -76.8741739378383 -1.5322736401302415
-110.81040522034704 -76.78705734608876 -1.5495139759066228
-111.54060182332307 -76.57702948877852 -1.5534681721567807
-92.78934832502036 -77.80327502108963 -1.4254353773206725
-112.06045945981506 -76.88325335861374 -1.546785510393931
-112.76908864932558 -76.81000669032349 -1.550218442487898
-93.59175528381812 -77.87786623153175 -1.4184870031313488
-93.93566149723475 -77.97344322232468 -1.421993254677743
-113.30481780232927 -76.86141210983487 -1.54352657480767
-113.88188223809107 -76.7315967961224 -1.5461321124711631
-94.32249156260688 -77.86592579380294 -1.4149783018156157
-94.78726672811511 -77.9990325405577 -1.4169064862124934
-114.14662829720388 -76.81312938047333 -1.541206108048384
-114.78220904433554 -76.80207586319449 -1.5414841243819573
-95.08261958172436 -77.32649566151038 -1.4098612484688642
-95.20334791122504 -77.44042850565518 -1.411322321011834
-115.33902483944564 -76.40155131584592 -1.538210919594145
-67.40055184578328 -77.33542186530178 -1.2933836628445115
-68.77252631249341 -77.26992732026135 -1.3018369862355175
-69.91461396578329 -77.2475143645602 -1.309323130037261
-70.51423299849486 -77.16056474743542 -1.3137830719289156
-100.6930097849229 -75.37379655784935 -1.506362260176701
-128.66275130629933 -74.0247908827001 -1.6788501807194756
-129.7221527242114 -73.817001384341 -1.6849963981498433
-131.0451223648406 -73.79497745249097 -1.6930601574543407
-131.7272908102305 -73.8696594429093 -1.6983808422675688
-90.8358308554651 -76.12274334315455 -1.4306733400192178
-91.87186385689253 -76.16873919522342 -1.4396625460856913
-93.46061297576549 -75.99911390353485 -1.4458844805081692
-97.85030564189587 -75.67830235656405 -1.4710922158271125
-98.41493074006925 -75.80034922025132 -1.4771884767776498
-99.7599207764187 -75.7183914636472 -1.4841747657940954
-101.15380059340183 -75.64555136469055 -1.4922537991092324
-102.19726362963372 -75.73270153875863 -1.5010079566483525
-103.16627368472541 -75.34577965967837 -1.5058117617199154
-107.5160444714236 -75.24289777455371 -1.5339558314833792
-108.08695726311309 -75.23084924498967 -1.5412623710908497
-109.39444901284492 -74.99422092460159 -1.5469093936634433
-110.16945859835229 -75.03040524057735 -1.552672681604096
-91.65117781472087 -76.19300948283113 -1.4263288251974955
-94.31288424419493 -75.92124550181694 -1.4479905044424346
-95.29161660170857 -75.98203765709816 -1.4517931569518234
-96.72252886870697 -75.94288880033838 -1.4592947408902646
-97.57933484839705 -75.88210407008263 -1.4670496298159805
-104.2420053429904 -75.48620313693685 -1.5090789766998507
-105.37094531564202 -75.35042293581962 -1.5137469754017354
-106.62041084362791 -75.38944054943076 -1.5224785763460977
-107.1087684080288 -75.11076689164895 -1.5274613894546007
-110.50528380949723 -75.11838703048615 -1.5450886741901333
-111.31263494001803 -75.00748497393674 -1.5489493897499231
-92.57229341650276 -75.74321410268828 -1.4153713745696068
-92.58604693498754 -76.26277265125745 -1.4212665233475876
-111.80240839528838 -75.08698022121197 -1.5417362337749374
-112.37345435763407 -75.14516255889905 -1.546035214027967
-93.13068134981825 -76.37671429883437 -1.4148571744907819
-93.67975267718094 -76.23663807716196 -1.417984619428633
-113.00306075429204 -75.13655705717419 -1.538595903809572
-113.57300961025622 -75.21160027603932 -1.5424241889720067
-94.14779918690307 -76.34464486150529 -1.4096300823322316
-94.53614541724413 -76.13009007606573 -1.412080759591906
-113.77346924825886 -75.04308522395611 -1.5362156068356212
-114.54888813844933 -75.16188907452873 -1.536933515378264
-94.99239060517348 -76.30934175326695 -1.4055919767999623
-95.28817703368497 -76.18993574356644 -1.4069649694713968
-115.40282863518952 -75.13856915258768 -1.5338318157317647
-95.55777003511683 -75.70100485490426 -1.4013889234262351
-116.07059007393158 -74.47211886160729 -1.5288748843740319
-67.17237683453536 -75.84030898439698 -1.2900902414416717
-68.32091291559931 -75.65671810466948 -1.2973232537372865
-69.46631782626069 -75.62853730382983 -1.3049137050001574
-70.19717869351624 -75.71685755184741 -1.3100634699332476
-100.46872442960282 -73.83377099097443 -1.5016459724918734
-128.3370091082202 -72.78597504384976 -1.6755582799929987
-129.4988809125697 -72.4457669921257 -1.6822368022864742
-130.62025104554164 -72.16603965862771 -1.6886869727937965
-131.36082834990162 -72.37264002966953 -1.6940838219660852
-90.49832876183133 -74.36702244520886 -1.4258143747897865
-91.48722978972872 -74.43746566139646 -1.4349333098886037
-93.17785063359514 -74.49852215528603 -1.4418160279356178
-97.47653499011246 -74.1816401262263 -1.4671419578243186
-98.0370648999084 -74.01714975754976 -1.4723548410265113
-99.33760533807718 -74.12613003325279 -1.4801151530106236
-100.68654656336777 -73.85373717557754 -1.487740161276386
-101.83490820952997 -73.77894825944341 -1.4961746964494007
-103.09376738014602 -73.7152583961454 -1.502525019771164
-107.14566199189787 -73.59114633055262 -1.528626836148287
-107.70535340232179 -73.57193870008447 -1.5364074427384977
-109.04892660876921 -73.56356251948986 -1.5430163188017751
-109.92429134188494 -73.51436795961777 -1.5483582023132312
-91.33031663449931 -74.50384113034359 -1.4215819936384424
-94.0007762774648 -74.16103981167173 -1.4433939461815544
-94.9476498041734 -74.28802826614725 -1.4472017709363378
-96.28411983780748 -74.2905236939277 -1.4543179172894958
-97.11748310994227 -74.24618581273788 -1.4617980584675514
-103.9314807830238 -73.70426401300081 -1.5049678454781918
-104.99672423868313 -73.81958499284693 -1.509531045253606
-106.2086613552647 -73.70032863969621 -1.5172331301535158
-106.8080012419517 -73.77443756110954 -1.5235748360343773
-110.2621824065565 -73.40824548433721 -1.5403698143916706
-110.96367346460575 -73.41670725667984 -1.5447397287467823
-92.42706175836256 -74.93448136712198 -1.4130859163081246
-92.22035302282022 -74.51843374904001 -1.4162785573907275
-111.46050529430394 -73.58776697280415 -1.5378346549105169
-112.0526693151091 -73.44842462650209 -1.541439242713085
-92.81067424995655 -74.79881739020209 -1.4104049604010611
-93.40507902474357 -74.63954998625933 -1.4135349403322712
-112.70121904574177 -73.52583715872204 -1.5341411713357087
-113.25939848247472 -73.55288482770871 -1.538097719484108
-93.77439610604084 -74.7219312338055 -1.404998409154983
-94.2572903505743 -74.56576278303129 -1.4079916372866779
-113.57901933527789 -73.51286030082308 -1.5316279151368586
-114.27404086943068 -73.52961066598026 -1.5332826259964125
-94.7437091798312 -74.67003038670667 -1.3999679301086017
-95.1743853970103 -74.7095329814324 -1.4025917649017932
-115.31745420583105 -73.56229225093176 -1.529181191840169
-95.65453996956803 -74.58763397491057 -1.3961917575285392
-95.69221613473358 -74.4984093158402 -1.3982293679887094
-116.20986002975324 -73.41257306193552 -1.525931436894645
-116.88219920351132 -72.83941367874488 -1.5218411192948065
-66.7870275190737 -74.53235317105519 -1.2863120908555183
-67.82539802354891 -74.69611429212794 -1.2932435210473505
-88.41240578821763 -72.15606900405078 -1.4187246902984292
-88.82040793019894 -72.46723517391506 -1.4216864077704616
-90.92873287197963 -72.40377378758603 -1.4350814318654816
-97.00015533928675 -71.90543501756868 -1.47091561607641
-100.44326269344417 -72.10636017213139 -1.4966522154085657
-106.6408319766737 -71.57012915065603 -1.5333848129940104
-108.85382716596877 -71.35774432818228 -1.5477189244733696
-90.20060013091279 -72.86626309492578 -1.421579249516464
-91.10871507901204 -72.70654383255805 -1.4303102209897234
-92.69732294681197 -72.76457281930516 -1.4369691037303094
-93.71561170640474 -72.4816923787823 -1.4391352813158977
-96.94268256134784 -72.38677479350841 -1.46135128462225
-97.78584481929856 -72.41054207557245 -1.468691829973011
-98.9997277395217 -72.29244529364941 -1.476089636075227
-100.2303891852905 -72.09520308698039 -1.4833948355502322
-101.48963327651789 -72.1123538481045 -1.4922708352746956
-102.68702312061879 -72.02867975042942 -1.4984940427953684
-106.78351114426377 -71.99721406164323 -1.5241400883817626
-107.17392242120131 -71.83502335563784 -1.5309133105987995
-108.66486738941222 -71.86367876542873 -1.538393909184705
-109.499151564614 -71.91374402635762 -1.5442594767586348
-91.02693861026414 -72.86643910743138 -1.417194709532785
-94.51435513959306 -72.78183410281977 -1.4426581698703964
-95.93161388125098 -72.61502625807964 -1.4502018623755284
-96.69780578838699 -72.77026101725062 -1.4572910117704803
-103.65872711545184 -72.32476843623832 -1.5017257992227147
-104.5380211618372 -72.18889003493588 -1.5050334310027926
-105.92185084313391 -72.03750796227882 -1.5132840026042151
-106.43723672895368 -72.05469770412049 -1.518745914761426
-110.00261968865567 -71.88651559077388 -1.536224372691005
-110.62306889106392 -71.72447050605001 -1.5401644130635181
-91.91047689413521 -72.84425031675849 -1.4116860808054488
-111.15971290076462 -71.91850648478975 -1.5332036491508516
-111.70260751511726 -71.64529316867959 -1.536529161554463
-92.51589181585156 -72.97583512162454 -1.4050389832143704
-93.09395542569182 -72.994591605254 -1.408972812218624
-112.27724738016215 -71.85296565119401 -1.5297848506299487
-112.8979189294194 -71.78862901628293 -1.5334223854880575
-93.4599924312461 -72.98894263221386 -1.3998337619250059
-93.99106275064476 -72.89846349411023 -1.4032825929106636
-113.27467952923138 -72.0118282676304 -1.5275188250430656
-114.02552377340872 -71.78647084283 -1.5285118919184497
-94.4289025388466 -73.0585478579869 -1.3950356857304365
-94.83522389881281 -73.10553684399845 -1.3988400177439528
-114.91794450602691 -71.96617800358433 -1.5249936532691255
-95.51538997261862 -73.1091648610824 -1.3906735746781023
-95.61705602119294 -73.06603969876319 -1.3936410710970344
-116.15933328724155 -72.01248647264146 -1.5214615732814016
-96.20220425132098 -72.84528732793399 -1.3872452118729837
-117.06920477965379 -71.6347368288216 -1.5175882831576941
-87.88569867781045 -71.13779278701514 -1.4132226982308564
-88.67401390188655 -71.26182971092379 -1.4182287200283612
-90.86443880260654 -71.47159393785536 -1.4330416496648084
-91.0562976730144 -70.66850582627359 -1.4308916096901907
-96.52435494726363 -70.62322726296779 -1.4665701302416496
-100.31456670605881 -70.56779409519315 -1.4938915966805482
-100.93076642888455 -69.76111782697598 -1.492128052217665
-106.33667908126935 -70.22343171891349 -1.5281927165786962
-109.05957367202554 -70.14537277194822 -1.5460996002300504
-109.59454635045145 -69.39200111652957 -1.5497232147468187
-89.89564664419926 -71.1754254667807 -1.4175946162466484
-90.73469539116473 -71.08553495404529 -1.425787489890181
-92.38526752331363 -71.11738466012348 -1.43360783269856
-93.60942875494656 -70.7931618949333 -1.4363320448637202
-95.65360444784609 -70.14217073311085 -1.4479415073903856
-96.34536497926108 -70.81160537265872 -1.4558328018584323
-97.30651888398452 -70.77889046747832 -1.4649807045659986
-98.5544312518669 -70.71205902105767 -1.4713430587245464
-99.96006752250634 -70.68524553515421 -1.4799410217977031
-101.06345457649594 -70.69260344546541 -1.487668757386371
-102.1664454076203 -70.52040315196287 -1.4950323182827765
-103.49183438060017 -70.25847178952114 -1.4985748486232953
-105.67333639139436 -69.95364727969908 -1.51129244079576
-106.19889078426971 -70.26963046069011 -1.5185571459840705
-106.91912341731066 -70.33202997588586 -1.5280422915315721
-108.31213121594806 -70.26545077926923 -1.534496040054028
-109.172209507788 -70.05348262646217 -1.5389989364152021
-90.78292009527212 -71.27387667315432 -1.4127321271901996
-94.33852394335622 -71.01477019562535 -1.4396094125850696
-95.36093151407954 -70.91439428412457 -1.445574655173115
-96.11732652196636 -71.25079067553881 -1.4520185100624015
-104.33876935921747 -70.4632234416228 -1.5024101560569312
-105.33721981060685 -70.35488896734913 -1.5084494338451655
-106.07413345264405 -70.94783447344193 -1.5150130691898762
-109.65420360213831 -70.1893175741981 -1.5316735436341993
-110.3082835346106 -70.11198083584767 -1.535741874852471
-91.6300393312908 -71.28452164269791 -1.4079123878116397
-110.80501130159772 -70.07760272287004 -1.5281933931489458
-111.50458411104567 -70.17007216358766 -1.532209032967552
-92.3348354474889 -71.43175284877313 -1.400240120183694
-92.70482115393457 -71.34344226327624 -1.403692405895012
-111.97109887624181 -70.16447983984213 -1.525059631835043
-112.68107859114556 -70.31083518497906 -1.5291233216235616
-93.06631748732285 -71.41694150691768 -1.3959202303621998
-93.66859729016875 -71.35983712199825 -1.3995103163166724
-112.92929866560476 -70.39528113435846 -1.5230400747832658
-113.69853395363734 -70.25650040812204 -1.5245303196602307
-94.05797545820582 -71.37651194082912 -1.3903391787452606
-94.56776646328045 -71.56431807839147 -1.3947641297677869
-114.71394188973596 -70.20094233664247 -1.520009967833674
-95.0083704779829 -71.55159897312052 -1.3860785868778494
-95.41354777277782 -71.36012594459528 -1.3887181025569653
-115.8337990781553 -70.27234789623562 -1.5168527744019027
-96.1150549567969 -71.48225378751569 -1.382248903687998
-95.81373155012652 -70.8819726843491 -1.3844283520290972
-116.95092813266024 -70.43600534399746 -1.51355607203853
-96.62530728713772 -71.07928822423635 -1.3776064551118812
-117.74195559964147 -69.94932231046815 -1.5099153850146632
-86.42540993253053 -69.39592125539312 -1.4014956595331514
-87.49166244247786 -69.65930620980029 -1.4072811095486868
-88.41162181511592 -69.59448295556435 -1.4132867919172807
-91.01277542951121 -70.03140650690965 -1.4296086728618322
-96.12606945632473 -69.4753047686865 -1.4621812684216606
-100.33605041930991 -69.36274850904911 -1.4914441261134104
-100.79852963525957 -69.1666935991403 -1.490968193827022
-106.06247558501175 -69.14464283952555 -1.5238662088255739
-108.65541681551089 -68.41303007878909 -1.54013527614894
-109.86507005521023 -68.21544047475861 -1.5483679539628838
-110.44044263550296 -67.6556143922671 -1.5520290477678569
-89.49684104823802 -69.49792786786672 -1.4128512703343035
-90.27664540007164 -69.4692743853822 -1.420819116600865
-92.13032669436582 -69.77645237313207 -1.4307943476015967
-93.5120719497115 -69.73355158320977 -1.4346987683317527
-95.08633527355451 -69.49957118784234 -1.4434513382976133
-95.92230488161289 -69.63256939354939 -1.4521559280414855
-97.2128711074981 -69.1511496892959 -1.4615486688431463
-98.28443931890259 -68.9851508771344 -1.467011919635545
-99.58358843741573 -69.05479526105643 -1.4749832435587151
-100.6366838226963 -69.00906300696514 -1.4824773206170596
-101.9870707647444 -69.25519928048624 -1.4927468117265936
-103.57251974975205 -69.21018002210148 -1.4977779814760455
-105.33841485561248 -69.14765352785756 -1.5084867272169633
-105.8585754066189 -69.1191791176622 -1.5157323679002597
-106.83299339076595 -68.5683293189071 -1.5250358691575976
-107.91501051738663 -68.58712271505667 -1.5298911514302245
-108.83937455745526 -68.52284120362711 -1.5347696748829018
-90.39349929313964 -69.54988517648681 -1.4079810548832064
-94.21042084135344 -69.97171509231967 -1.437999475091934
-94.8248665010735 -69.89849239866578 -1.4415522253616755
-104.33376389118698 -69.53669233009533 -1.5016385034162572
-104.93656790317272 -69.34087963518078 -1.5052943517250783
-109.3039803095121 -68.62862053586719 -1.527663753083515
-110.04689537906359 -68.60216780551795 -1.5314156093271645
-91.30682103273841 -69.66675265234338 -1.4032864492989483
-110.54532553545856 -68.4670495443023 -1.5236891578967882
-111.19571620374595 -68.49507333126195 -1.5275803434727964
-92.0764036065267 -69.64616131854326 -1.3951288156540709
-92.27187394012397 -69.62144611668903 -1.3991092036756783
-111.72535968219256 -68.52276906958144 -1.5203983459518542
-112.44587663987835 -68.60055210658871 -1.5240480846203992
-92.8525789622069 -69.76083727617683 -1.390956056697539
-93.4019108434515 -69.8028521600223 -1.3951785939906745
-112.714728263465 -68.78455251302103 -1.5183509512468407
-113.39111386591901 -68.48159325298045 -1.5193292648284833
-93.67928831095742 -69.73640016419795 -1.3860454009210288
-94.28441541167338 -69.75101268570711 -1.3897207870343553
-114.28928168936521 -68.6454451837948 -1.5158858017061057
-94.6858540263323 -70.13649098324328 -1.3821120075220248
-95.16163396463669 -69.74725400958239 -1.3843028697158999
-115.52621851748606 -68.76315048358103 -1.5124603415957336
-95.92194607247244 -69.97255832626892 -1.3776521614922919
-95.69303430981091 -69.53022618294008 -1.380165549972695
-116.61511928059956 -68.71997156904703 -1.508459581572652
-96.6599214118903 -69.8346234544899 -1.3727189287337311
-117.81894990184884 -68.62494234620078 -1.5052940355578155
-97.13016951264066 -69.49054517073063 -1.3684861271863673
-118.61467081479779 -68.13042444566713 -1.5016363860339499
-84.85201799744694 -67.6364811257968 -1.3891217617322782
-85.86279434991405 -67.99629078412093 -1.3948539001910991
-87.35058171833397 -67.8613235162783 -1.4028815231706688
-88.09117132992803 -67.91208290090124 -1.408777047371306
-108.3576249901146 -66.68351848310962 -1.5351752746843008
-109.79551639556946 -66.86911812658508 -1.5448159889476296
-110.71182228660167 -66.47405770620111 -1.5516521525473417
-89.1967333677669 -67.91612077630425 -1.4084027121937792
-90.00126635802194 -67.82354632579919 -1.4169196761198501
-96.9456334246515 -67.5575315686524 -1.4570728368217425
-97.92762581957687 -67.44096649879057 -1.4624940888292055
-99.24371395259394 -67.31520471748748 -1.469840578731876
-100.3070076056269 -67.26697724854753 -1.4779266511232756
-106.59204851004493 -66.65369305295144 -1.5208419043567885
-107.79806536301234 -66.83386021487345 -1.5262253649697044
-108.57218549653989 -66.74337256910165 -1.5293957311477377
-90.09868238533588 -67.86218914457399 -1.403422340999621
-109.15141972476466 -66.84931143530704 -1.522428839208266
-109.73826608759042 -66.85034440604618 -1.5262623260500627
-91.01923619880978 -67.94764646755405 -1.3986042872860402
-110.3442736119367 -66.96173846290964 -1.5194551119092325
-110.8406336123405 -66.97553912997981 -1.5234508163218123
-91.83165564954552 -68.1781298684523 -1.3909974221884422
-91.96009973465644 -68.04588381230634 -1.3946361595811312
-111.41001504651724 -66.94169686090171 -1.5162003350594304
-111.94067120738274 -66.91445748212399 -1.5199271245993398
-92.55391330589345 -68.16096915798113 -1.3868162835834719
-93.16825367663694 -68.02289109872888 -1.3896670132429754
-112.27312344744466 -67.00411488419965 -1.513837476278001
-113.09072030719122 -66.92313332074542 -1.5151067208184288
-93.42468246743532 -68.19681850920178 -1.3818094549604285
-94.0046145264557 -68.09534456854615 -1.3850226894449298
-114.029231384235 -66.94600879040004 -1.5113896322649065
-94.00526259807621 -68.14349121670904 -1.378225923531561
-94.81433352491106 -68.0051627205276 -1.37990235948391
-114.9843671638456 -67.08312792871378 -1.5068112612760278
-95.90076054769236 -68.20150028366105 -1.3726337037613485
-95.53589421098273 -67.85233687870647 -1.3749806255901782
-116.25208419580873 -67.0829898166727 -1.5032481913527396
-96.5262374166948 -68.28184061865045 -1.3682052572294838
-117.54991517102948 -67.10456372255072 -1.5008356834799568
-97.1501059034931 -68.16668453235823 -1.3635880250435934
-118.60264113876626 -67.02788785704038 -1.4976764400949456
-97.62076496070836 -67.58529265905823 -1.358227480283869
-119.23465919622112 -66.46475219582314 -1.49416725702365
-83.37173376175996 -65.92551197230388 -1.3774911480160785
-84.35847779664483 -66.46445567562634 -1.383381865194003
