# .PCD v0.7 - Point Cloud Data file format
VERSION 0.7
FIELDS x y z
SIZE 4 4 4
TYPE F F F
COUNT 1 1 1
WIDTH 828
HEIGHT 1
VIEWPOINT 0 0 0 1 0 0 0
POINTS 828
DATA ascii
-91.5414921600414 -123.74577694522432 -1.2824191197052615
-83.38601744163344 -122.62414288241574 -1.2604010201583864
-88.2519533186399 -122.41884055995966 -1.297381492744389
-88.1754664412855 -121.79942644507159 -1.2962260665904168
-84.20496917763228 -122.75800835074098 -1.2581694761478028
-88.73091372543453 -122.42745377448571 -1.2962152781326826
-89.27262043737699 -122.20154018739913 -1.2945512155093424
-85.43222303653397 -122.85273110023722 -1.2553984995281828
-90.4648496132615 -122.4261073216206 -1.2913296642344
-90.06169544243616 -122.23790725456215 -1.2925155070980885
-86.69850325065464 -122.725508099492 -1.2547882563229436
-87.5562095138895 -122.65707883217478 -1.2559251836581014
-91.03846809812782 -122.41824283559077 -1.284222155059
-88.64171144157875 -122.68624946500773 -1.2593695855136289
-89.87287284877718 -122.59035357246677 -1.2652170553071496
-91.01329972132694 -122.7046865888739 -1.2731803106981496
-91.19494257239086 -122.50643943011464 -1.2791552985330874
-82.9834732460393 -121.01537042779978 -1.2545458634414146
-88.11779108634022 -120.62152593286018 -1.293626283662781
-83.79333527507248 -121.10957117479853 -1.253405133839228
-88.40536031485875 -121.2241149132212 -1.2932696283760108
-88.80788398585223 -120.49238019042636 -1.2903275908824205
-84.96207680496941 -121.06114438383176 -1.2500315462622185
-90.44300053930903 -120.95846467130026 -1.2865844421881385
-89.9044863782716 -120.56999325559156 -1.287629402970958
-86.28823582321306 -121.05557171170872 -1.249345244147782
-87.34313725217646 -121.20263823391666 -1.2511741116144095
-90.81735916463367 -120.77685065888878 -1.2814674332333498
-88.1300649874949 -121.34070179190843 -1.2537716951321198
-89.23300051043086 -121.79034742102843 -1.2590405133730744
-90.99351675737555 -121.4167268105237 -1.2728459932485972
-90.95284735518302 -120.8115778758235 -1.2754515488784335
-82.38732051680363 -119.27790139685064 -1.2480567380041565
-87.99628416768039 -119.07322452287701 -1.2907107710085826
-83.43076741317573 -119.42421761889796 -1.2480885323372073
-88.522590327844 -118.90746383122884 -1.2865345103812451
-84.58222564122599 -119.56069761193564 -1.2456464795274687
-89.75431298877324 -119.02924640138801 -1.2830932091274765
-86.09287353013349 -119.46935700559476 -1.2443777150395061
-90.58195383656837 -119.11333601109256 -1.2778935234701305
-90.18837258761174 -118.53409420015527 -1.2793820321441034
-87.20326599509427 -119.35907581461984 -1.2453324004552726
-90.87074782212791 -119.2972772953037 -1.2731503403716857
-81.65233754089917 -117.47211442564574 -1.2406996250203908
-82.05998878823067 -118.1926031638338 -1.2438073037790804
-87.97784838119459 -117.56201870769728 -1.287655694526379
-83.08256016832637 -117.88042423765111 -1.2430522179250576
-88.36805991589804 -117.28633719436043 -1.2827883723344613
-84.22815189093579 -117.78417977171904 -1.240388585923335
-89.40345801704626 -117.32399029506114 -1.2787037288202763
-85.81340881200823 -117.85826685946058 -1.239296023847839
-90.4178737479886 -117.58094971860251 -1.2735858139107485
-89.99075021360771 -117.39455818876411 -1.276431323548987
-86.69983233413129 -117.62061424336845 -1.238992856878265
-86.89950443542827 -117.63646013712932 -1.2393698501608226
-90.73688974468135 -117.62057284184138 -1.269559768493563
-81.32762291161596 -116.16133207279657 -1.2354441781057823
-87.92383132110561 -115.50040843908481 -1.2845858788102618
-81.69162353779772 -115.82466588550932 -1.2346933241786975
-82.6748600503492 -116.22857858205305 -1.2372834158325197
-88.19314956132816 -115.58162584474049 -1.2791510246060869
-83.8708510866567 -116.13813342282297 -1.2355426636912552
-85.5748674590385 -115.31722953406839 -1.2409754369715718
-86.52294396198693 -115.21887387160925 -1.2521708437889145
-87.63249091791398 -115.13521505282421 -1.2583866781306368
-88.41469560691704 -115.09959418744894 -1.2630313597426062
-89.25349788510198 -115.8211911692586 -1.2742719119480383
-85.33170047337182 -116.06477446505237 -1.2336129918648893
-86.35264553066426 -115.32860377418973 -1.2399610413536624
-87.4092316587504 -115.2443414908901 -1.2479204098326093
-88.58305722374702 -115.17580722257992 -1.2556810408482104
-89.68491579539702 -115.46497190729747 -1.2646233984070732
-89.82635425908498 -115.65653666173736 -1.2710396847770031
-86.4888382747259 -116.13154654276275 -1.2340693748760359
-87.3540138235611 -115.34513375648714 -1.2369537298201694
-88.74340351164511 -115.82516177242974 -1.246679443496539
-89.76529633959025 -115.80454549021982 -1.253707925570493
-90.21338160269859 -115.4200176211273 -1.2610011278726379
-89.40266040200369 -115.61498282696871 -1.244854077705056
-90.3175894176123 -115.57668173994198 -1.2516007627517245
-80.67292757461688 -114.39872282333724 -1.2279543370773833
-87.9501339469099 -114.45613734024373 -1.2826719569018183
-87.90856601954812 -113.67874757598577 -1.2821187012495243
-81.37331773546087 -114.03149035831933 -1.2278252032592443
-82.4875686560182 -114.43745208164198 -1.2312924624548185
-88.11931677653556 -114.07101038377749 -1.275929324990652
-87.9811167571916 -113.75296025157334 -1.2808804686218398
-83.6019598301888 -114.52627125025786 -1.2305623638546621
-85.37766265286366 -114.93232964977139 -1.2395923014466466
-86.43958483523522 -115.10784356009525 -1.25252623217703
-87.90771601338004 -114.76982996627234 -1.2590478526481723
-88.34655187475046 -114.6412558155167 -1.262616413832603
-88.87304085597576 -114.06624747909149 -1.2699291691647498
-84.92461278130403 -114.58900781913876 -1.2291120953105223
-85.9656166302926 -114.87809250123169 -1.2370348179558885
-87.29810692602261 -115.13353681058254 -1.246446989619912
-88.48091600853888 -114.97506698737683 -1.255098524993943
-89.28213844417202 -114.48329339471812 -1.260788845674532
-89.64592466491317 -114.13440945100393 -1.2666626205326188
-86.1595619594388 -114.87249668253595 -1.229903105440664
-87.36364132540241 -115.07228019002187 -1.2363359978076316
-88.28104938084478 -115.11588127939787 -1.2428210447998516
-89.62732140755367 -114.85909316880733 -1.2515777053294845
-90.16203298843202 -114.50951380831332 -1.2587940658787722
-89.45389845423837 -115.14339789571865 -1.2442870506617754
-90.30000599039184 -114.68467112959028 -1.2496382358904723
-80.0842035032534 -112.94842884190477 -1.2215718451464246
-87.9192872617417 -112.28397892798739 -1.2802493628223552
-81.0124767713271 -112.90719615426354 -1.223079763293542
-82.27346435274134 -112.95496689595178 -1.226210666916758
-88.07187174405165 -112.6225940264847 -1.2727957741304285
-88.02797359689839 -112.23816064558179 -1.2772260558850093
-83.27164752328713 -113.00573857414348 -1.2260449741996025
-88.59033240880221 -112.51691169105439 -1.2659299614601829
-84.60364615833822 -112.90283473427986 -1.2239646201234744
-89.92345333027546 -112.58145736846026 -1.2592355957985346
-89.42160779744614 -112.49418191890494 -1.2620162554583274
-85.68540686130487 -112.93729703212698 -1.2237159472887211
-90.14892986209333 -112.57863433609862 -1.257232239706221
-79.33744331865091 -111.05185970656727 -1.2132262845683242
-79.70807215358508 -111.88180437548635 -1.2169430422641356
-87.93964590118502 -110.70265236175723 -1.2780448512848854
-79.51068210430854 -110.8294589228253 -1.2126143940732814
-80.75152162196959 -111.25820266128343 -1.2169232779556536
-81.91911455329158 -111.29636200422865 -1.2202054287499162
-88.01706702188778 -110.7982390660138 -1.2675846997233085
-88.04575700577675 -110.57636901056244 -1.27338881630465
-82.95317007239304 -111.27747675102515 -1.22070230489546
-88.37870176150834 -110.83131933717827 -1.261283303705106
-84.25347077957086 -111.32507283893742 -1.2192466801684314
-89.77943539272458 -111.30377628590557 -1.255569968744861
-89.2595913164696 -110.88812424992875 -1.2571344096737365
-85.36324125832691 -111.19490473796994 -1.2183060044177068
-89.96707391917559 -110.96470999307665 -1.2523739720553257
-78.90792369031257 -109.75868866116465 -1.207652333280829
-87.98122196137962 -109.36135938601312 -1.2760491743168023
-87.97829788390123 -108.51138097892509 -1.2750833752220556
-79.39193251303678 -109.7012877813946 -1.2083758944674041
-80.57203071127195 -109.7394631580969 -1.2115362552074616
-87.95457258869209 -109.23692520274952 -1.2635632989560397
-88.04020601501841 -108.98090357259579 -1.2701019582649207
-81.42218828501692 -109.0893277141429 -1.2121211868157178
-82.49174979846515 -109.63096341823045 -1.215654927701101
-88.11797600316714 -109.14345015421746 -1.2574561017943746
-83.90126845675377 -109.65050519469935 -1.2143107712680945
-88.99301253753823 -109.20393984577488 -1.2524519720340654
-85.24041237806017 -109.57461457657737 -1.21353201266823
-89.72790885019626 -109.22876552932776 -1.2473839154524375
-89.50755666522109 -109.21213597315587 -1.2495738508646084
-78.34048666703805 -108.33154438962069 -1.2013761653433912
-87.98265637188996 -107.27581802762029 -1.2735712932138075
-78.98071638015048 -108.11140753592254 -1.2020404088626562
-80.23002308428485 -107.9353994264668 -1.2050712180072352
-87.8628997771332 -107.68194032209443 -1.2597183305401687
-87.97552080841626 -107.31343033339189 -1.2651811714435326
-88.02839773154875 -106.99558555626501 -1.270581069741187
-81.20340493365818 -107.91924561445273 -1.2081692661492747
-82.16076465169307 -107.93868819483609 -1.2104443810410064
-87.87044355846935 -107.50693743086606 -1.2537932906814373
-83.57426167283278 -108.05416300666977 -1.209621071333947
-88.70849523928439 -107.56632688953131 -1.2480152904054684
-84.83035394438916 -107.9496160594516 -1.2086652848481805
-89.51165732843637 -107.60754867898224 -1.2419710642929525
-89.24326801790532 -107.41032547956007 -1.2444068825510968
-77.30525096826673 -105.76121380100932 -1.1899825077680284
-77.61994725703664 -106.56716553819254 -1.1935816176663023
-88.0070403067664 -105.50331111250644 -1.2711572387195655
-78.59324909044022 -106.23473713530534 -1.195084530051323
-79.94838443308957 -106.38699993493938 -1.2000026299390218
-87.83723318249729 -105.5908085926099 -1.2604119940793317
-88.014766330648 -105.5697532026432 -1.2676624121985194
-80.87548759293199 -106.16406761843591 -1.2025373839377294
-82.0056249143841 -106.29081219972966 -1.2055560367143727
-87.59715473961474 -105.81748256225728 -1.2490941289494746
-87.66007961988988 -105.71210088284087 -1.2547661371335894
-83.28200868487511 -106.23540356298062 -1.2043237259290163
-88.46797589119892 -105.90614219521184 -1.2430437661365419
-84.56932562927149 -106.33166727161817 -1.2041425148951708
-85.35927814471589 -106.21532620255653 -1.2050029399755666
-89.21211168332643 -105.93539373365068 -1.236747563453719
-88.95209431958631 -105.82999476054385 -1.239837196238103
-76.9599757498979 -104.85957015875404 -1.1861097043088074
-88.03286403716416 -103.9874269159239 -1.2690598911651791
-88.01041210107904 -103.33827416125365 -1.2687064423343595
-77.14642101553186 -104.3215283483994 -1.1846553608016313
-78.27593917390048 -104.92076581003471 -1.190208822306111
-79.63656418228801 -104.73462267323785 -1.1946013654713705
-87.67013499032129 -104.0526178940467 -1.2558935624614593
-87.94848519775839 -103.85162601832683 -1.2634784730237647
-80.52731673869113 -104.62970280678327 -1.1974348140416318
-81.71154918646272 -104.53923734713756 -1.200202611774805
-87.34897990644603 -104.16634787969537 -1.2447310681871744
-87.49546722130425 -104.21955985190942 -1.2511956633386552
-83.05766670098937 -104.7486004585812 -1.2000610412107275
-88.15168196060556 -104.12391265003768 -1.2378866987018766
-84.36167930655867 -104.74319260218302 -1.1997876821523066
-85.18154706317242 -104.69250871612647 -1.2009378631821055
-88.92181494644791 -104.35395355622819 -1.2321619302759643
-88.67111575580137 -104.24334630528624 -1.2351082905378443
-76.37844285826122 -103.36838712607263 -1.179625744691559
-88.01891846319953 -102.17460870297273 -1.2670343534849497
-76.93112969740868 -103.25748040995876 -1.180737842114628
-78.24536799120152 -103.18232093551724 -1.1852724671171049
-79.34303808062647 -103.25947750675061 -1.1898039374359428
-87.48824128268737 -102.41951385801315 -1.2513877241872282
-87.85704021856071 -102.33462754163097 -1.259433233431378
-88.06396965353704 -102.37799541291052 -1.265342242166797
-80.17477614862143 -103.2138759688342 -1.1926740679785104
-81.39714154036257 -103.01891839821117 -1.1957623052579398
-87.12623488525671 -102.5522297614724 -1.240366220631956
-87.26695563621708 -102.44876682770911 -1.2464432429150563
-82.69947410014831 -103.09849706673543 -1.1954939975200742
-87.84657482643178 -102.74582125639978 -1.2341850466305577
-84.01933102304301 -103.10901343822331 -1.1951574527028852
-84.8840988416585 -102.95091813016751 -1.196055050506055
-88.62027387788993 -102.64907569644444 -1.2262168418290964
-88.37487930350747 -102.93045763607446 -1.231567800462277
-75.65089397146009 -101.53955418839662 -1.1716891512769996
-88.0378507261771 -100.55913365163315 -1.2645125185768546
-76.37835273192029 -101.4299035055818 -1.1734775426335107
-77.98286686912635 -101.58453271875953 -1.1799228686251009
-78.95380754657238 -101.77467793025711 -1.1844684238185228
-87.3680717577684 -100.80196166442144 -1.2476915165122173
-87.69540796348896 -100.6957465195592 -1.2538267135855214
-88.01309298772335 -100.49116320685224 -1.2615634352402978
-79.67309704664187 -101.4500180766047 -1.1863668849497042
-81.00907227883059 -101.30287055244976 -1.1906079416662876
-86.85745472072318 -100.83559623613439 -1.235539288214511
-87.1201158406451 -100.87445809028941 -1.2432494515999712
-82.25394596290121 -101.33824392779493 -1.1907941966490916
-87.48104141789538 -101.06430724738485 -1.2294330701400953
-83.536239343459 -101.42064433700924 -1.1904896129260092
-84.61871017070473 -101.35949713518798 -1.1917525191317617
-88.27938438468817 -101.05043172090505 -1.2216666377548313
-88.05315689970114 -101.35389864304835 -1.2269292559911789
-85.61369856692332 -101.32832354273447 -1.1932317173889737
-88.76419859958571 -100.38571543306134 -1.2083533748766135
-88.25580955390382 -100.76653352355868 -1.2163978286825514
-86.78843870358052 -100.94326464233194 -1.1932170757935159
-87.82984246861943 -100.95983527453186 -1.1975393037087323
-88.70714457107273 -100.90291077018551 -1.2050335436107948
-74.91992775729999 -99.62241737068175 -1.1634644264797245
-75.26849689283569 -100.52028203102832 -1.1673522913586614
-88.03330943384475 -98.88891814909694 -1.2620990702146575
-75.0806312733041 -99.40303584028946 -1.1631081805198236
-76.0430358987145 -99.97058442751364 -1.1680987886593976
-77.68671593995866 -99.95878156917306 -1.1744803655316172
-78.39620857942496 -99.10742678291587 -1.176251871103323
-87.11486416415072 -98.8350832467054 -1.2425971479856248
-87.52657833841924 -99.15130164209054 -1.249012781140406
-87.92576293475177 -98.8263717385856 -1.257327168521012
-78.50016193983407 -99.63990819380004 -1.1771839086155729
-79.36478367889276 -99.85018062936263 -1.1813791279591959
-80.85921604307704 -99.75303563834336 -1.1865538396015112
-86.52441185282579 -99.16613584053668 -1.2304518021570634
-86.90340065202317 -99.18930687842361 -1.2384861394334186
-82.11691681149173 -99.81743614553237 -1.18665188566151
-87.10436187831702 -99.34500517643838 -1.2244194945224942
-83.28846924874392 -99.69035243507446 -1.1859218397705356
-84.29983205072575 -99.86644151548747 -1.1876324285670288
-87.89348711442742 -99.4335469214478 -1.2176960809416901
-87.49758674431872 -99.03408138457486 -1.2204102357090225
-85.64437193463314 -99.46748003151112 -1.1884945592667084
-86.48309045794319 -99.02688941430802 -1.188957599249005
-88.44484990746832 -99.27139918115171 -1.2050830690562486
-88.07187813850517 -98.88661948421168 -1.2086211789378414
-87.49170426143509 -99.85536430120385 -1.1943227913044345
-88.34085856274034 -99.69584113757242 -1.2009706937755307
-74.55262967294519 -98.4018466502788 -1.1584648432855889
-88.02714101362534 -97.71953945376576 -1.2603730856783752
-88.00366837325242 -97.03481173040146 -1.2596403159645142
-74.82017761928121 -98.32243313408236 -1.159021523559456
-75.92693044156971 -98.33814399132717 -1.1632534089169724
-77.36529449836682 -98.28002951136428 -1.1705198131130672
-78.40783101342485 -98.1855338909173 -1.1759062086153098
-86.51366876391927 -97.62264811323966 -1.2371635068424516
-87.23200104404732 -97.2939577224524 -1.2445178400002517
-87.8590127466791 -97.41674278531482 -1.2543991093433016
-88.01449508036309 -96.6894912351526 -1.2576698656786072
-78.05777782255302 -97.63402542193336 -1.1710507177935343
-79.09243878412902 -98.16344369133272 -1.1782403309197564
-80.44560375813425 -98.2625523038167 -1.1825971236055193
-86.1075665604635 -97.62402725872134 -1.2261943641941857
-86.40956474352218 -97.31785885601572 -1.232868109366555
-81.94057477271849 -98.24493903813487 -1.182404341245584
-87.11029421841663 -97.42824638443781 -1.2158579069819484
-86.79799653579914 -97.82437447392151 -1.2198548807998728
-83.03428949076526 -98.20900509847024 -1.18200864915106
-83.91491780700005 -98.08846982969062 -1.182939074953999
-87.54497171031429 -97.91873724207274 -1.213342073624446
-85.3360211580809 -98.02784407620959 -1.1847115095561211
-86.26503380015167 -97.7917461275035 -1.1861557846421655
-88.01979883023635 -97.85343008151112 -1.200785444960848
-87.82564745890507 -97.88474851455246 -1.2057883909158362
-87.14315295566732 -98.05742856235625 -1.1901659752919778
-87.87233317420775 -98.10009229849547 -1.195941062608918
-73.90835625365588 -96.84388947724268 -1.1519075995009216
-87.99623418908041 -95.63005289264773 -1.2568407518444598
-74.41162148178924 -96.70498835316417 -1.1529913569991377
-75.63250883686737 -96.71691819326729 -1.158126791872064
-77.07799601799569 -96.61828002759532 -1.165299108081485
-77.89958588807937 -96.3573015016014 -1.1695988408819498
-86.23734372167918 -95.71865446608713 -1.2323626255236035
-86.93440596577308 -95.75770329181302 -1.2396476997760315
-87.70044030738592 -95.59656940100317 -1.2498391300506166
-87.94394708432601 -95.14504457857004 -1.254405529859735
-77.889224287079 -96.55730500793905 -1.1681143607132711
-78.8114354917124 -96.57829772123186 -1.173198228043322
-80.15369935549809 -96.33771019710238 -1.177566147062303
-85.78751623693142 -95.99589678144253 -1.2210579931491505
-86.12197829012663 -95.84582333887496 -1.2284046824231334
-81.42434445476816 -96.44811909400028 -1.177581675261713
-86.78842495831665 -96.10906498584778 -1.2120376969553914
-86.41272050094834 -96.05126873829433 -1.2148392780416688
-82.63452693028843 -96.51061785995985 -1.1776318935653527
-83.65646420914263 -96.53564300388038 -1.1791403227026964
-87.1240012044712 -96.09261083783649 -1.2069694984368888
-84.86719866017725 -96.40723116084433 -1.1806005752810298
-86.0795337119705 -96.37273003054021 -1.1832637514499305
-87.47424292217798 -96.16246447411974 -1.1946081955347574
-87.40323641814373 -96.24817331296906 -1.2010675912650164
-86.89409815434753 -96.4480225843267 -1.186957704588844
-87.25822454643028 -96.26614404706802 -1.189746272189713
-73.32911848036024 -95.04325010321143 -1.1446609274327324
-87.9346095695454 -94.04889611603666 -1.2548043687360602
-74.20286474556768 -95.19503887374617 -1.1482038444670832
-75.46983086589434 -95.131404078109 -1.1538846776794822
-76.55653571240794 -95.10150796756609 -1.1590857160872725
-85.92736604261027 -94.1123738720151 -1.2278833963202804
-86.62940946864859 -94.08769107874885 -1.234716515022368
-87.4210740355338 -93.94720179005992 -1.2443067785238362
-87.84348883877128 -93.92773790999298 -1.2510581405755035
-78.40418091354563 -94.74455035189493 -1.1668866567301333
-80.10747109483484 -94.86254229639056 -1.1738647434391019
-85.48046904593896 -94.49947744058903 -1.2168739418288426
-85.79551228803925 -94.14260402047364 -1.2240074761606972
-81.24377025623188 -94.80888920814493 -1.173346608378772
-86.38274587950224 -94.46992919211795 -1.2073037514501541
-86.01799777822878 -94.39960673797496 -1.210059136354991
-82.34100321621528 -95.02658074336398 -1.1738352184919125
-83.3186722800229 -94.86226909397259 -1.175003376623736
-86.73750558625301 -94.59772535741627 -1.2020668052314474
-84.62033682687145 -94.91320404950433 -1.1770356944764633
-85.81930666147854 -94.71554043342745 -1.1799740094798923
-86.93788534269245 -94.55615369549604 -1.18893963740237
-86.91712162499785 -94.50653433551479 -1.1961816570453612
-86.75090275073886 -95.23784334682541 -1.18503189548101
-87.00451108871464 -95.36411662636117 -1.1873256406993011
-72.53808002483646 -92.89846366278026 -1.1358942115742463
-72.88425387833006 -93.85656430614112 -1.1397869206054607
-87.88524012450777 -92.2287173989323 -1.251574820756974
-73.54236870876464 -93.45810171274493 -1.1410864479669294
-75.09042225193087 -93.44907296165563 -1.1484400466002966
-76.6978534381689 -93.28947529530717 -1.1571967112143455
-77.39212692074541 -92.96186886984984 -1.1605621078469466
-85.67994714039773 -92.55064586166873 -1.2236156066234152
-86.32375040085589 -92.52415806255509 -1.2299797629421487
-87.14077843515462 -92.29676292842059 -1.2391999151891033
-87.7192420383735 -92.3373124961149 -1.2474547748767304
-77.44851446959746 -93.86710008826269 -1.1608815570997721
-78.10060323855413 -93.24365814818712 -1.1638606857102853
-79.20559469136452 -93.19494678070131 -1.168435212844987
-85.04044811473301 -92.63515839497458 -1.2118302517271748
-85.5629705370862 -92.73038591743318 -1.2201022947708036
-80.93586500510372 -93.29708273057439 -1.1694372297274418
-85.91481858428392 -92.79740067262435 -1.20287745924747
-85.5591939974512 -92.84365964347998 -1.2061898232212318
-81.85424537773459 -93.11950886409676 -1.1690154320078232
-82.9241165074107 -93.16924096474345 -1.1706995947007202
-86.32423529956932 -92.91055053403207 -1.1969207446732013
-84.19990846879284 -93.16287775648377 -1.172767667032194
-85.61090971455172 -93.14151000861573 -1.1769162082132925
-86.50681357692335 -92.99693371183051 -1.1857946655844098
-86.56268165347154 -93.18860397260002 -1.1922647574330385
-72.16986917996257 -91.76946736875018 -1.1316095667556345
-87.82001498004594 -91.11581072895972 -1.2498319959640105
-87.74232661811476 -90.11107030775798 -1.2481679529517005
-72.48490218547734 -91.9700759235753 -1.132948658766854
-73.28669573242355 -91.86565441933223 -1.1361866982597741
-74.83366685538722 -91.84993373176975 -1.143905915722225
-76.12114768914526 -91.68659109545699 -1.150114197237324
-86.07910049313895 -90.92390107633825 -1.2248116957894661
-86.83846830843399 -90.7043384763647 -1.2341595463084116
-87.56223344519515 -90.63978042399002 -1.2435504429828328
-87.77053783992129 -90.02756621374691 -1.2469797193529857
-76.97657937185056 -92.03465511217387 -1.1549628235597729
-77.83649184343555 -91.52997933898595 -1.1582003653185002
-79.15525451497636 -91.53881087024352 -1.1641351755649691
-84.77128795118132 -91.07626436141702 -1.2055163922656191
-85.3593887919588 -90.96929514422014 -1.2153728748559618
-85.72929282980007 -90.71587145443097 -1.2201876371111056
-80.76578207593393 -91.55501820434425 -1.1651435960487584
-81.4897536414503 -91.25303880526059 -1.1642989916699544
-85.44258266808085 -90.95271010474178 -1.1976329537629489
-85.07552541838879 -90.99113854868905 -1.2004360597431485
-81.65489703698395 -92.21208085763284 -1.1667234521126397
-82.61900211125399 -91.4768370724689 -1.1665395732723187
-85.895316416926 -91.19614646311106 -1.1916046846663693
-83.84541424857564 -91.68502587504868 -1.1690587751747774
-85.00201198365885 -91.46599239586365 -1.1719826790487635
-86.11139233454116 -91.45564773283382 -1.1827846647783233
-86.10047742636766 -91.37724955599833 -1.1866897783821486
-71.72064811704918 -90.25586531113733 -1.1259400022158625
-87.67407598111213 -89.01156593450091 -1.2459398922885498
-72.00694026295757 -90.07831650033802 -1.1262700987793035
-73.04820247453408 -90.22147694004357 -1.1313848693502837
-74.58324386480116 -90.16034535530044 -1.1392303151890077
-75.79485985022899 -90.13977762095458 -1.1454619960984784
-85.86309854847144 -89.15713606033209 -1.2210400644809802
-86.5494869834241 -89.054982825213 -1.2292730706105002
-87.42241529981706 -89.14168513192328 -1.2402296913397828
-87.65657916048202 -88.67588642494042 -1.243587846831743
-76.66487854137048 -90.13528280640236 -1.1498206003982903
-77.3204234199493 -89.98256328175164 -1.15301814562712
-79.08524191672066 -89.92254682669227 -1.1605448693666254
-84.38435197277477 -89.42601023277759 -1.20142741051613
-85.10760824696709 -89.46613955100273 -1.2117847272363458
-85.57846181955925 -89.8108595010383 -1.2177515950517985
-80.3941491401151 -89.84538288223675 -1.1607574752153604
-81.11105066702667 -89.78994932576168 -1.1605697045693089
-85.11460845532147 -89.45763650226198 -1.1928549810624867
-84.69632180742579 -89.49856279365993 -1.1962756485866486
-82.2708619402714 -89.891015851532 -1.1624831687644956
-85.53032328494758 -89.15313655712569 -1.1802142431964515
-85.5168705428633 -89.66731895644946 -1.1863407479227903
-83.54433863372275 -90.10198858231873 -1.1651447715535599
-84.53228724956138 -89.81151991584179 -1.1675856145540187
-85.5964807837015 -89.68969135539255 -1.1762359633640287
-71.12903640354361 -88.47209112255081 -1.1191788419256676
-87.55991920568702 -87.26257817999804 -1.2425593542129179
-71.67606248590864 -88.64582061962714 -1.121374613414859
-72.79639326549653 -88.56414641839403 -1.1266463587304416
-74.21897322854652 -88.51445228310388 -1.1340788026703974
-75.41378556324511 -88.36974202520798 -1.1401376275226753
-85.5232202419111 -87.48289279534279 -1.2158661374200346
-86.28691721560291 -87.43811448415205 -1.2248195344099433
-87.12251391159738 -87.44651889474639 -1.234808773543549
-87.51213281022628 -87.10072628949737 -1.2399846056577934
-76.2327859742306 -88.14826152279578 -1.144041257069789
-77.10414430624849 -88.30710931702811 -1.1488685693506404
-78.80276533082271 -88.25755168873107 -1.1563400933614683
-84.0169237075896 -87.83280891980806 -1.1960683336575737
-84.72560132663995 -87.49300775630415 -1.2064487291183261
-84.98198961945322 -86.876429109166 -1.2091568421369716
-79.98422563386254 -88.24472088176303 -1.1566789799607224
-80.71723231651288 -87.78806972102129 -1.1555689523566326
-84.61733490856768 -87.64340409689852 -1.1879209859027833
-84.33104920307956 -87.92453891061744 -1.1916288487113504
-82.11000893178648 -88.1372923962961 -1.1584492487416134
-83.02022293801735 -87.39577128427918 -1.1584828192157386
-85.21656790272225 -87.94475007866735 -1.17653518593779
-85.05956376745709 -87.97825690144504 -1.1825414547342095
-84.07427772905092 -88.12311469440696 -1.1631413855848576
-85.13790420681096 -87.99772039184423 -1.1717716771391764
-70.79976890952867 -87.10729825815906 -1.1144954983737951
-87.4229261925534 -85.88938232849766 -1.2392955128672138
-71.41888059111932 -86.95213900526718 -1.116494098915276
-72.57364230189529 -86.94064934454615 -1.1224028594625752
-73.85610854555011 -86.89854837475184 -1.1291645313511345
-75.2945836870217 -86.76559552536808 -1.1366798781350138
-84.61097295378278 -85.22687111780976 -1.2041756528131082
-85.10989674892276 -85.93191891741203 -1.2102752921241045
-85.86480589727314 -85.64937435948988 -1.2187285468470905
-86.76934392295101 -85.65223234364227 -1.2290948514286295
-87.28479620537924 -85.60443764671622 -1.2356598903989244
-75.8966983362049 -86.47593038175498 -1.139392427401014
-76.69615368055942 -86.65766251310055 -1.1440389136609457
-78.41494598095483 -86.5179906725361 -1.1514409544929858
-83.65662337056041 -86.14084738460846 -1.192306509487101
-84.3120999165748 -85.93396045919135 -1.2011583409160649
-79.58608594239293 -86.77704697200305 -1.152932836470574
-80.48186726372131 -86.50932719640778 -1.1524065854896772
-84.2752002908541 -86.2294937515743 -1.1836669420917807
-83.87228725647422 -86.19912092402177 -1.1869251138409682
-81.75225504841163 -86.52914078192998 -1.1543505532678717
-82.82375458974319 -86.31885578709533 -1.1560094539055985
-84.82782460030977 -86.51951549565204 -1.1724530386445557
-84.65914240827782 -86.29273192997181 -1.176335820155507
-83.82196128019159 -86.64017090368782 -1.1599410025285435
-84.66141838579208 -86.39348869063299 -1.1666746740161427
-70.46288075560382 -85.83943943780568 -1.110216921751409
-87.14754264559747 -83.84886549373982 -1.234906450910257
-70.9541468537665 -85.32534347768707 -1.1109424826154208
-72.27808301284126 -85.3291888592934 -1.1179102303789898
-73.6460372942325 -85.13360540047098 -1.1248773206109037
-74.95108153720346 -85.08452826891073 -1.1320030189633772
-84.43313440554353 -84.44565625724631 -1.2018849225827803
-84.80783071554374 -84.27372663694862 -1.2060644514248262
-85.59578570373 -84.07366673681787 -1.2146723985567873
-86.43243515317315 -84.12095068348604 -1.2240871514969383
-87.06632060314237 -83.83929367429208 -1.2315537046007752
-75.68525907871724 -85.36346583470127 -1.1364313336476506
-76.26670820185717 -85.04468334133307 -1.139167652286779
-77.97316392192651 -84.89002846905267 -1.1468913087482895
-83.29857769741555 -84.50035416125594 -1.1869719658560962
-83.99049913002666 -84.30120584683581 -1.197020603755199
-79.28632680548723 -85.05080123381704 -1.148480911853622
-79.99687994223224 -84.91293378921246 -1.1483205347553982
-83.82981504391259 -84.50211911567646 -1.1785929524793937
-83.67815909351808 -85.3310571473 -1.1842832757401554
-81.43371644648649 -84.97303864812837 -1.150455619321573
-82.52652550810537 -84.76450029347683 -1.152424701959374
-84.34374290402074 -84.84613524388514 -1.1666930294249498
-84.21919988708846 -84.57541713984733 -1.171356648882849
-83.32759682586496 -84.71044001085473 -1.1553715340660506
-84.13970224533105 -84.84259893295541 -1.1616748053865629
-69.10735159026505 -83.47517087146339 -1.0985857810601638
-69.789703248027 -84.09967243312947 -1.1036799801125778
-87.15015595810294 -82.71266926428743 -1.2334755646006443
-87.46507912052134 -81.9900683646183 -1.2358451092265477
-69.613059195206 -83.15966283915346 -1.099272520365376
-70.54116665882752 -83.66987893078354 -1.1055840669003267
-71.92169055095944 -83.56167032678007 -1.1128100704933417
-73.19473294283064 -83.47924405268819 -1.1195618717537255
-74.59429353993981 -83.5892082534438 -1.1275827185466072
-75.3400838287846 -83.41286744828014 -1.1314307687237573
-83.93595368906615 -82.55810479564279 -1.1956278462008159
-84.52677217045432 -82.6283540525455 -1.2021356265781855
-85.27161494728273 -82.51237720970227 -1.210119472170696
-86.18909317827729 -82.49247056730619 -1.2201447713998514
-86.87437440261213 -82.09036420067923 -1.2277459739537475
-87.3163824296956 -81.56400919120468 -1.2317528403110178
-76.14499903069094 -83.3712665122578 -1.13587850107391
-77.62034672940881 -83.27360242230415 -1.1424902794348628
-83.01902452588526 -82.69515194510704 -1.176893881185261
-82.89947524362184 -82.80098372581529 -1.1830698557265438
-83.61397288375598 -82.81653964969422 -1.1922685083415345
-78.85032559726305 -83.34375197245485 -1.144102672510397
-79.68717857479096 -83.22252600124696 -1.1441271634158026
-83.45515931948401 -82.93380884376293 -1.173794384907387
-81.09168578855947 -83.27785537651631 -1.146217287001743
-82.33282612221065 -83.22024419852404 -1.1493185068764276
-83.77928312431231 -83.01151293432248 -1.1606155331855654
-83.85847869770288 -83.19290929914673 -1.1675244618290608
-83.19958957589148 -83.37431845108573 -1.153368061402404
-83.66155528436607 -83.55019755070643 -1.1572019061662469
-67.5325112613009 -81.94816407777141 -1.0856548284542666
-68.42787889032843 -82.45973673755198 -1.0916395570125166
-87.77251555969472 -80.69098908101863 -1.2356167610560882
-88.2510015961765 -80.19583092435867 -1.2401407896105188
-69.14147825685785 -81.95999283955658 -1.0938443323939535
-70.18576014147776 -82.12493318837706 -1.100744071307365
-71.49726822851096 -81.98962663206979 -1.1076660452807707
-72.83976043105929 -81.88826511142332 -1.1149089186149594
-74.22326783876456 -81.83598935822643 -1.1226903862317181
-75.11987142228266 -81.5946304930444 -1.1273382031352464
-83.58072591346667 -81.19335144530122 -1.1911491185183032
-84.1669102232099 -80.98377008598915 -1.1973569029127007
-84.89660882210778 -80.87749143067157 -1.205042678073157
-85.81078412267465 -80.80304668118497 -1.2147231522904218
-86.68440291921083 -80.64892583484047 -1.224145577611202
-87.3347510995717 -80.48465330293435 -1.230266962850245
-75.85085612118478 -81.62758769728464 -1.1314890104243829
-77.26295816058952 -81.6210717116894 -1.1381280910702805
-78.30484800153478 -81.1635251064193 -1.1385095530417475
-82.62450411730694 -81.06814289061178 -1.1721814587091215
-82.53353770594583 -81.24028747504833 -1.1784406724732501
-83.10716641826043 -81.00993663195561 -1.1859438142654741
-79.30967915599196 -81.51992613098506 -1.1398776405015616
-83.05639617884984 -81.24474180061834 -1.1683377441019502
-80.79471066311424 -81.73743445054805 -1.142414418425832
-82.1744163522271 -81.64513939129958 -1.1467482014285908
-83.23259580604673 -81.40267013293342 -1.155301737505878
-83.41902277692171 -81.48803337638527 -1.1622908896021529
-66.16289244569754 -80.48743712261289 -1.07323955721765
-67.34342142189904 -80.61181918421232 -1.07985031180633
-68.21696918261895 -80.98420318587846 -1.0859397276415064
-87.77187558411661 -79.1689714057343 -1.232206874595289
-88.27269735732276 -78.8765128584354 -1.2366202482038255
-88.96190305439907 -78.6397347426093 -1.2446129418934895
-68.57760386060468 -80.41361482704093 -1.0872786668422783
-69.79482665266049 -80.4855094079551 -1.0952515231156463
-71.21904003103582 -80.37532476785104 -1.1030602976097652
-72.57523471099435 -80.25486644656529 -1.1106841277009631
-73.88843276438938 -80.11187518655503 -1.1180750299998898
-74.8881678072357 -80.11969135096123 -1.1237582384016638
-83.11242233196579 -79.30556541175453 -1.1852872416876998
-83.84946727036791 -79.31025820848457 -1.1930943118603645
-84.68678634998389 -79.23335087474273 -1.2016680827800714
-85.47656434958684 -79.07557861486087 -1.209748174517282
-86.3383465004159 -79.02839984167545 -1.218756004919029
-87.22209782072342 -78.77574391082425 -1.2267763932611597
-75.57110693034294 -80.04407075929136 -1.1275736498033841
-76.75155449412269 -80.06774727154964 -1.133639747059598
-77.91816764125852 -79.68222468495769 -1.134866081989497
-82.18893606121826 -79.48030920216189 -1.1676523071682334
-82.08026924744271 -79.48211507444394 -1.173620125638706
-82.72232499586882 -79.40179248016783 -1.1812748021131931
-78.96969350234572 -79.84301613455101 -1.1358176622735232
-82.65438876202748 -79.74858710119334 -1.1638281099519847
-80.37365266508783 -79.9294354560891 -1.1379564771368673
-81.50955213353936 -79.94025044049874 -1.1417285347260022
-82.65489176098203 -79.76516042263842 -1.1501932039280371
-82.93781359584776 -79.81048163127495 -1.1575631745836794
-64.55830578388597 -78.88858359368523 -1.0595685798891195
-65.77973500487482 -79.1066250383232 -1.066849032644622
-66.97451975740807 -78.93120719078719 -1.0740043382007536
-88.10329747475063 -77.29297134505931 -1.2324777581925723
-88.95866520148894 -77.08203738868794 -1.2398688482451738
-89.74952581245937 -76.96996003755562 -1.2481665545911245
-90.18310309377144 -76.25309865376826 -1.2523831954556996
-67.5652831622489 -78.75400991024787 -1.0776113306426394
-68.29084764288899 -78.84104196687984 -1.0825844186023743
-69.54104446263129 -78.77933890246943 -1.090551790486164
-70.85617815848194 -78.73143404433011 -1.0982146549586185
-72.30268650075382 -78.55001462188348 -1.1064520766514847
-73.51498852012405 -78.45525965100983 -1.1134849533305256
-74.72339327293876 -78.65742246810446 -1.1208271251173805
-82.69531090447671 -77.72703540301654 -1.1805670461562259
-83.460859719224 -77.63217320793372 -1.1882504220642334
-84.28134356410007 -77.60465657357081 -1.1964924383603752
-85.20966288918778 -77.60679349172166 -1.2058971524381736
-86.08190822004671 -77.3312432283599 -1.214548423348066
-87.04253577409398 -77.4125532205749 -1.2232932334635436
-87.57696498007888 -76.92297197757968 -1.227308787993953
-75.39936475508479 -78.48232148344887 -1.1245247305638788
-76.4751652069104 -78.40925434235483 -1.129793410221354
-77.57256095861257 -78.18770039132059 -1.1311968686754286
-81.72434726103955 -77.86460188180773 -1.1631813652574516
-81.7389746055268 -78.04987388478082 -1.170134985144011
-82.28571319203293 -78.10217405537472 -1.176463650993434
-78.72968297557375 -78.38580027333825 -1.1323323088638133
-82.2115239402648 -77.95711217510305 -1.1576472209799757
-79.9838186366905 -78.58475857781488 -1.1344944305947795
-81.18830792776077 -78.38423556098212 -1.138703719901813
-82.23394791822417 -78.23189391111276 -1.1473532025705655
-82.49689898634979 -78.26367385688732 -1.152615172449621
-63.02901683527899 -77.37988147616598 -1.0466432312883711
-64.38811135918628 -77.5592848228372 -1.0546063653252933
-65.5827284972243 -77.44773204748171 -1.062124382773322
-66.50701576207616 -77.52101940798936 -1.068401158222374
-88.03695287086937 -75.47067215252052 -1.229348775477764
-88.66788719776974 -75.5120472711588 -1.2349773138214921
-89.69524375319604 -75.34128946190698 -1.243903509198647
-90.4779081049892 -75.27796652368195 -1.2522112960318252
-90.96574338823147 -74.46369064501383 -1.2569197489110944
-67.10959193305027 -77.32718515013732 -1.0720952217892747
-68.04494680429747 -77.21728284247263 -1.0783718238522306
-69.16061313066913 -77.07741935399544 -1.0853325260219686
-70.4775250172167 -77.06601549087009 -1.0934304700748487
-71.90126877104807 -77.03529972098485 -1.1018213323546215
-73.13288868318064 -76.82621905896704 -1.1088795503638547
-74.50704241624611 -76.81577595422408 -1.1171239878331163
-75.19837595569656 -76.43635152744517 -1.1206810321418677
-81.55706031112976 -75.93295068454809 -1.1684489799041617
-82.13271480329446 -76.11760197129502 -1.1742890788278089
-83.00208500333004 -75.87844623497185 -1.182713540070822
-83.90021769347447 -75.91982259251147 -1.191643097580088
-84.77811066033703 -75.84866592738244 -1.2004145655941383
-85.762196454295 -75.56453646420375 -1.2094818124765527
-86.74978544314496 -75.60548549568948 -1.218556638469255
-87.47943914181586 -75.5730187143967 -1.2246479053452823
-75.90499563632498 -76.75493344576668 -1.124906487685127
-77.25881529777863 -76.68006418005479 -1.1275122735180254
-81.27424734621141 -76.2032468183306 -1.158355619126752
-81.21629422349842 -76.25769333239697 -1.164544474350448
-78.81681762469013 -76.7558701968775 -1.1288432069953456
-81.8137856937516 -76.36752555900648 -1.152176375927278
-79.76658101910981 -76.81874673707793 -1.130772530029261
-80.5557014465912 -76.53125814554605 -1.1338473959700748
-81.64782333497962 -76.5446394801118 -1.142358525066029
-82.11140801275087 -76.93200153142185 -1.1484588095712025
-60.57577039836916 -75.34862238926813 -1.027413508154037
-61.59163972102982 -75.86155647857913 -1.0341548943564687
-62.76636458372676 -75.90063510020603 -1.040663287206358
-64.00150358469185 -75.73472953934284 -1.0485932145095325
-65.27460290387384 -75.84972623802827 -1.0573070472748909
-66.21813593770932 -75.46556688868303 -1.0631906840532273
-87.67732327244508 -73.90957331142756 -1.2243607062227433
-88.4391437103054 -73.80374317456418 -1.2306644280104957
-89.45617976932272 -73.7248223753014 -1.2394386532277932
-90.34798148635079 -73.53167709694995 -1.2469888491728547
-91.26001722134677 -73.48499793396971 -1.2562196106413022
-91.73223265664328 -72.95385180669977 -1.2608847998537551
-66.7272966847434 -75.75397479184407 -1.0671402561383516
-67.69229124384994 -75.56966232864228 -1.07360891591306
-69.09055513692107 -75.54052769672191 -1.0796795528243304
-70.18476272702299 -75.36028776756663 -1.089144309219224
-71.39482013389036 -75.46613801727672 -1.096505688649894
-72.76355826624913 -75.242319861101 -1.1043860054980603
-74.1183061059443 -75.16616916419908 -1.1124775984096675
-75.07646207292639 -74.8040147404069 -1.1177628379725062
-81.06019488576747 -74.46326234686923 -1.162871308020243
-81.73050126991711 -74.39444736741844 -1.1693801505234303
-82.720037745285 -74.27077515018367 -1.178969798134276
-83.58084911305177 -74.20689757809798 -1.1874464369341085
-84.48018982661074 -74.19110379724275 -1.1963947733629003
-85.85810601104203 -74.11875212218192 -1.205467364352749
-86.30612494899577 -73.88629739037913 -1.2129295579992334
-87.12448130941199 -73.9305368516121 -1.2197848187665263
-69.48833321741436 -74.90991261971715 -1.074527735505052
-75.81814713863967 -75.33270214843049 -1.1225411716229148
-76.78158944710768 -75.15356005230647 -1.1237494792880909
-80.8590447945072 -74.58945326113775 -1.1534721940946508
-80.73256001129003 -74.69288417925368 -1.1592720903273148
-86.57803838866297 -73.59533931016641 -1.202787256317874
-78.31915792624483 -74.9997751521318 -1.1245165931252514
-79.32068597126916 -74.48116491003955 -1.1257272818345663
-81.44158108668098 -74.84672750748054 -1.141976580166815
-81.39361119098648 -74.77274288803277 -1.14713705384104
-80.15813096965076 -75.04897833116016 -1.130521944605944
-81.03567684939077 -74.9069749515265 -1.1370162526762502
-59.05175960201878 -73.85364162282798 -1.0145249655912043
-60.05223998995352 -74.48066232657274 -1.0213281027725887
-61.34641764588 -74.42161230217692 -1.028568904024759
-62.60168848639015 -74.35083113788026 -1.0368468635627497
-63.78840266213697 -74.28041183285755 -1.044710434791384
-64.97368822671912 -74.11486672980617 -1.0526293411563399
-65.98116813288836 -73.98940997447818 -1.0594742053648674
-87.17806541852313 -72.2318567114587 -1.2183188032518177
-88.12318166955522 -72.1307246338293 -1.2260649536350612
-89.09597793708232 -72.00406925133522 -1.2340597533767126
-90.04398104463438 -71.90629749390148 -1.242104455296578
-91.15256486380652 -71.7909078168303 -1.2516288840373473
-91.97311177536871 -71.812200828 -1.260074757545148
-92.53289977411096 -71.14698138226998 -1.2651317939427422
-66.53192589142088 -73.99199086610432 -1.0633170635948488
-67.4532485674031 -74.01513734981393 -1.0698218728830828
-68.80091267938212 -73.88832128587434 -1.0749023858986795
-69.80894134644264 -73.79843393282354 -1.0846330223895482
-71.14084797852856 -73.57331761362182 -1.0922848245770578
-72.49086912553825 -73.54990288110321 -1.1004012953083577
-73.73755003536444 -73.53640850362868 -1.1079327772231518
-74.91443115809265 -73.35783839530589 -1.114878390146005
-80.56636571525246 -72.9160852346414 -1.1573321255195004
-81.40797632343539 -72.80130782730578 -1.1653912902567054
-82.2993637231703 -72.70599734081702 -1.1740248506075959
-83.25102448652073 -72.76610136648438 -1.1833733309892585
-84.12762418990722 -72.55257934770427 -1.1919363399448497
-85.58841648876701 -72.40498062320935 -1.2000298864765573
-85.95739941167261 -72.27362314211743 -1.2083215624068335
-86.72877522603633 -72.32092835905112 -1.2146869611297468
-69.469946464931 -73.96025005292383 -1.0729431376080987
-75.6247609879614 -73.79175180226258 -1.1193793170328596
-76.51539619389773 -73.21257647938087 -1.1191077717424374
-80.4200855004147 -72.97203735516224 -1.1484704188349064
-80.19542265514268 -73.06664776321163 -1.1532402196508076
-86.34409799055254 -72.62318295966602 -1.1995230703313402
-77.84742706269266 -73.43435276528024 -1.1205765035965638
-79.35484517084997 -73.28297858027138 -1.1250552559045408
-80.65704551118245 -73.22237548571248 -1.1348190996794723
-80.87772312678108 -73.04380654938016 -1.1422468846920466
-80.15183579946414 -74.02136733548636 -1.1300091252364597
-80.4250370447372 -73.82011996535319 -1.131988729335162
-57.51672365809742 -72.34918106723553 -1.001714844385665
-58.5206072537202 -72.89854848434358 -1.0084716265141074
-59.88638663363671 -72.81870871765248 -1.0160019086639536
-61.04185553874925 -72.71292630802336 -1.0235912696656884
-62.257297454668915 -72.72491631972528 -1.031840138724213
-63.50517308312986 -72.72994475409973 -1.0404653122476346
-64.6752429199358 -72.52320034403112 -1.0483291572967006
-65.80171413423813 -72.26727210671352 -1.055934498509566
-66.68109123826862 -71.89550255213801 -1.0618311584220375
-84.93114587137592 -69.98089942334245 -1.1979277832119488
-85.57085475616574 -70.29502073909484 -1.2033377322966299
-86.70160385462971 -70.5015224781994 -1.2125822822031438
-87.77948975652588 -70.63658997235218 -1.221536141396557
-88.7873838515044 -70.37705707415853 -1.2296117885733118
-89.8124019875035 -70.27952428897 -1.238076257637982
-90.8559478279422 -70.19651621938672 -1.2468994883400413
-91.80222224274515 -70.12458270935798 -1.2549954577058473
-92.72323206245052 -70.08209379775688 -1.2640197654911973
-93.26470457598865 -69.53058022401301 -1.2692375239760263
-67.0618147117303 -72.55695028881068 -1.0653146045458999
-68.52388125904038 -72.23316556970514 -1.0702007786119179
-69.38757911085257 -72.12128880907254 -1.0797550420716011
-70.75906871023273 -72.1467075672909 -1.0880211677702425
-72.11500009775447 -72.0055775675409 -1.0960832129399074
-73.2968850979009 -71.93020899931017 -1.1032049159141668
-74.58037466901082 -71.77309955691823 -1.110943896861544
-79.48316210570471 -70.5732053432624 -1.145501869766774
-80.07393818215715 -71.23383912509337 -1.1520085325579343
-80.97768904684249 -71.2245624521713 -1.160583445001939
-81.99615836232898 -71.04498863958806 -1.1702780491217672
-82.85555270569229 -70.97162227039234 -1.1785503173279308
-83.75019843260812 -70.76262205571243 -1.187248028196206
-85.30715350752656 -70.7871687580746 -1.1959984814714617
-85.57731686401011 -70.95446496207686 -1.2040119428243128
-69.33723787719097 -72.85576881039731 -1.0705583396501586
-76.24627201719231 -71.63108050447408 -1.1154140660520264
-80.01788238512162 -71.46242044565568 -1.1434877038498508
-85.85477265179222 -70.88622373629265 -1.1937126102656346
-77.57087004057308 -71.59537307129817 -1.1165719781962273
-78.93934987007462 -71.6350060097795 -1.1219410884826022
-80.02137097576411 -71.65565755308215 -1.1299341465884385
-80.38574421433354 -71.44149833601632 -1.1374665393823342
-56.15917452893599 -70.92562099057818 -0.9896298906295221
-57.00826331584058 -71.34730833780011 -0.9953090871184926
-58.48724595303218 -71.26642960111245 -1.0039341070153747
-59.56612300217392 -71.25138035379841 -1.0112199228182304
-60.771544756706334 -71.1435742218512 -1.0192497037315145
-61.92384103712456 -71.17090602619241 -1.0272643514829358
-63.167216378970714 -70.91863649132046 -1.0355843022538171
-64.30003641216761 -70.77753643184049 -1.0434398703261345
-65.41788563013614 -70.74939680857558 -1.051447902521878
-66.62692185431553 -70.78941362047014 -1.0602053750820288
-67.16674881288625 -70.4105415939858 -1.0637062875420853
-84.6994771795036 -69.15537595594711 -1.1952983807283244
-85.25383445315262 -69.03472552033529 -1.1996231158090522
-86.3729962821786 -68.95736607580855 -1.2084866850244012
-87.42886442454409 -68.96043120037665 -1.2169392222432436
-88.4814299023343 -68.72380918760379 -1.225237742426127
-89.42754805017945 -68.487101050757 -1.2328059434235485
-90.46435521400038 -68.58745293445946 -1.241583873911362
-91.56346409924927 -68.4865400242476 -1.2507934400553724
-92.56902995550533 -68.32608889162303 -1.2592435713109071
-93.49710467346468 -68.34175106297414 -1.2680309388302444
-94.04448019385687 -67.77201256089899 -1.2730591906925013
-68.19221970784305 -70.56181323043255 -1.0657912489294075
-69.00814680387289 -70.37196552161242 -1.0751077578932864
-70.29922968571871 -70.37983001972388 -1.0828958834483013
-71.5641581625169 -70.21599564253809 -1.0904472377189292
-72.83972422875756 -70.2171570879877 -1.0983713678171048
-74.11446838201992 -70.05807659024212 -1.1060800338600787
-75.02498278948693 -70.01406185128893 -1.110904521457622
-79.15405527715771 -69.40936500431475 -1.14181581203136
-79.64196125808878 -69.57999425201172 -1.147346409727507
-80.61368695300814 -69.45367986623981 -1.1564808602223964
-81.51537279211277 -69.35781177850389 -1.1649182231516737
-82.41586764883522 -69.34114522418267 -1.1735127932888927
-83.31584202996477 -69.20433503809798 -1.1822351366478487
-84.80827501789838 -69.1292819211798 -1.1910880665851913
-75.93307951246298 -70.08546891109474 -1.1118450257772303
-79.6139074327185 -69.86977427480518 -1.1379348383691805
-77.27340584876166 -70.1148511126088 -1.1133648470465458
-78.27493506396503 -70.0909993584116 -1.117436957506002
-79.44251338307014 -69.90510894814219 -1.1258655362571124
-79.82700643256929 -69.73989182067513 -1.1324288921151837
