# .PCD v0.7 - Point Cloud Data file format
VERSION 0.7
FIELDS x y z
SIZE 4 4 4
TYPE F F F
COUNT 1 1 1
WIDTH 819
HEIGHT 1
VIEWPOINT 0 0 0 1 0 0 0
POINTS 819
DATA ascii
-100.38820423156112 -77.32467040812153 -1.4250751332322302
-99.82994738572577 -76.78516104961521 -1.416174963211766
-99.19922661592462 -76.13590992824736 -1.4058054831939544
-98.7535111764408 -75.47928681744062 -1.39830537323563
-117.6993336531029 -96.69505859519069 -1.707002135215198
-115.99607198665625 -94.46435859222623 -1.674615828218768
-115.0519181168339 -93.84090916339883 -1.6648859962062115
-114.62381424960903 -93.28418109645474 -1.6564355081997557
-113.44292828893335 -92.41884498706645 -1.6442666152090226
-112.4800559666241 -91.8136671467936 -1.6371255963428666
-111.5848224827769 -91.16559891680092 -1.6254616941988442
-111.64130921113191 -90.54225413210384 -1.6167681872069655
-111.26327029732934 -89.73150165183719 -1.606666198241611
-110.3762123396267 -89.0773939811014 -1.5966362382320007
-109.93426585621219 -88.56413070938106 -1.5870047791892672
-107.2460225111663 -86.36768696066461 -1.5557756002059662
-107.03962297015013 -85.96740516805684 -1.5506437522201872
-116.62778902967051 -96.6000018597784 -1.7076011542548972
-112.25116558563343 -92.66120826462998 -1.6417409710878537
-112.04032707634315 -92.28361921043992 -1.6385336474339114
-106.00707342008464 -86.12520625197888 -1.5528146792175348
-105.98190509400173 -85.70061215802511 -1.5508295693017273
-132.42694741121187 -107.29291271540163 -1.8847958936764022
-131.61348204040155 -106.69920514332162 -1.8760503836748386
-130.91528418720156 -106.04151929275322 -1.8670720436872859
-106.31364944981398 -80.91577599000783 -1.5079900338414922
-98.51842462074748 -73.6841734197416 -1.394058513674426
-98.03899322722516 -73.1232466028234 -1.3862103736812315
-97.48918739639896 -72.43889509522265 -1.3759591136760214
-97.42121309755777 -71.46914236147359 -1.370990383859624
-130.56706082437256 -105.93365680584927 -1.862527593627942
-130.00183191529158 -105.29398698003573 -1.8551232736665864
-129.36183374109675 -104.780210681713 -1.8466468936470837
-128.5253272824245 -104.0187420045622 -1.8352904636422858
-127.8408843993626 -103.28481256773478 -1.8258831536684026
-127.14681196233019 -102.74499221847204 -1.816369093635762
-126.3938987484945 -101.93038377198471 -1.8056832536598657
-125.67851110223755 -101.35643701862527 -1.7956745636272964
-125.0336686904601 -100.64816404120046 -1.7863322036472267
-124.34792013530686 -99.96586557327801 -1.7763697836471894
-123.62869137260499 -99.35633105529837 -1.7660576236189374
-122.94362719398482 -98.55280783879947 -1.7559777836519168
-122.28396118828812 -97.74473981816023 -1.7459555836873737
-121.57360831986819 -97.44383491569882 -1.735976593575748
-120.9064317985711 -97.03261707128304 -1.7265225455067914
-120.49151747007767 -96.86647703490385 -1.7206901784387123
-118.91533771150316 -95.22934499828118 -1.7066028666347877
-118.2020735064319 -94.50246022984766 -1.6963043986410418
-117.18880518565982 -93.70241440845058 -1.6850230016489969
-116.64120943557259 -93.3908493560315 -1.6795862196312448
-109.83753085733574 -86.49499061248129 -1.5811195926752626
-109.72589814070687 -86.13757649428014 -1.5762310876818413
-109.26963451919225 -85.51103140801267 -1.5663820826678063
-108.69709819556671 -85.06746688170252 -1.5575038296197916
-108.16876856555265 -84.60804720550937 -1.5508632986211168
-107.70768050899835 -83.93042861562648 -1.533256555466963
-107.11080236131504 -83.04024327036117 -1.5245266435521976
-106.53525794718239 -82.11790463189665 -1.5157191436452613
-105.85402289825727 -81.37136207046315 -1.505793603664702
-105.20919754737406 -80.65574717563098 -1.496274543683243
-104.5465950377772 -80.10632727690043 -1.4866600036513948
-103.80822549126658 -79.46901617753171 -1.475978483623865
-103.13975535251413 -78.6910161889932 -1.4659681236507873
-102.46121098634697 -78.0526704871256 -1.4559253436363226
-101.82144243411969 -77.32949374611485 -1.4461615136521786
-101.08590103230088 -76.38058346607717 -1.43477355370143
-100.51152271435663 -75.97323980540492 -1.426024153645424
-99.89883476184299 -75.3621441757283 -1.4164385536321458
-99.22891240277272 -74.58475365878047 -1.405767453645687
-98.82189349786815 -74.27971775878925 -1.399140853602255
-117.78390473467084 -95.23911999790856 -1.7074210446482851
-115.89996188805883 -92.89977773184555 -1.6744925066727125
-115.04521972332877 -92.40843281764023 -1.6657404326411573
-114.62954973435966 -91.78392682391384 -1.6562104266329019
-113.94902192883788 -91.00277079549232 -1.6456756306502653
-112.75571363313709 -90.4272312409858 -1.637224090649276
-111.85748538231675 -89.67529546365469 -1.6259249051428415
-111.82334013037784 -88.94939989649474 -1.61611700965861
-111.24830708477806 -88.24546818809624 -1.6059020166598363
-110.29525945433289 -87.68441625011862 -1.5964088656338071
-109.8269318229262 -86.88415506397506 -1.5864567966683882
-107.37669809964316 -84.98130165778869 -1.5561027706169306
-106.88915608351806 -84.47200066682822 -1.5503115826497789
-116.44977883411576 -95.23527269345095 -1.708167778664329
-105.67687584054262 -84.72018349034511 -1.5532082196352623
-105.59374862123093 -84.20219546341005 -1.5503176697286063
-132.40935458730002 -105.9400537619845 -1.8854286840836936
-131.65073001568905 -105.28314187836219 -1.8764453240958148
-130.88039430260287 -104.7024234719797 -1.8662134840607616
-130.28641233686804 -103.57551199344769 -1.858096794227306
-124.58553654602098 -97.68177131025453 -1.7736353142588486
-124.00417669182282 -97.55179365831594 -1.765765234139502
-123.61803224507715 -97.45481328298278 -1.7599441440514734
-105.85728613039417 -80.12185003490337 -1.5012338339380862
-105.44190599740828 -79.36284593715182 -1.494778164030498
-104.92772940333198 -78.32164605513574 -1.4859311041574448
-104.45327790977983 -77.53706337310591 -1.4792581242529759
-99.95695171389711 -73.03398106335824 -1.4153124242887987
-99.31326443485283 -72.67673427157821 -1.405760184202136
-98.69908393816236 -72.35764878674912 -1.3963743341076662
-98.02853699016775 -71.68135929995299 -1.3855561240887755
-97.4804713583298 -71.02829149445459 -1.3761917540921618
-97.30321260037095 -70.55392685291699 -1.370606414118932
-130.50542692142585 -104.94180207643984 -1.8614922938965912
-130.0851136088059 -104.13605315964284 -1.8557632740171595
-129.31856253401799 -103.18542871942888 -1.845119524081782
-128.64516971086815 -102.62222118808225 -1.8358554140609584
-127.9815081637876 -101.82421132775212 -1.826350764103823
-127.26130323393464 -101.25958190100613 -1.8162872340674399
-126.55970968361173 -100.41404673440226 -1.8059687341079056
-125.8444437091497 -99.76111673896278 -1.7956253040916879
-125.22211403661395 -99.07182018855751 -1.7864497441094156
-124.56691562557143 -98.4362648818281 -1.776947784104944
-123.73368792619921 -97.93748864360575 -1.7652427740165497
-123.121322334923 -97.59005393000072 -1.7567262539477209
-122.25559638755958 -96.7320996958246 -1.744117353946042
-118.91671490715522 -93.76606089274595 -1.7070069860697221
-118.2260931695505 -92.88605366451552 -1.6957241851009748
-117.35838393802034 -92.24750986318324 -1.6859402910917411
-116.65034251935153 -91.99560357793752 -1.6801749680500209
-114.50058412192426 -89.12228401159639 -1.6495654842765566
-111.78305993692483 -86.47709738309841 -1.6098918592554199
-109.74025749122686 -84.64834722622626 -1.575876280109179
-109.31463580925238 -84.07935915875854 -1.565939236076595
-108.64299739630084 -83.46299251636316 -1.5578918710955918
-108.26208401179478 -83.09014876118727 -1.5507992160626272
-106.78500543560904 -81.29033659044697 -1.517390823920078
-105.7679431886753 -80.33148779163574 -1.5025640139035121
-105.35094018653278 -79.72775457285175 -1.4966065439605847
-104.66013662581398 -78.79287121741332 -1.4861885440251263
-103.9864928499116 -77.84950144013632 -1.4758557140938455
-103.33933212161911 -77.20586827089869 -1.4663704040920629
-102.62235531811397 -76.60766699182433 -1.4560449740602397
-101.92270579748144 -75.73497859468101 -1.445520564104512
-101.28672163627662 -75.0961750605614 -1.4360710441020357
-100.5857208510984 -74.4371205638332 -1.4255981740850179
-99.98778249059389 -73.89944195426938 -1.4166173240624074
-99.34279869951078 -73.54178827044208 -1.406871543971996
-117.7388183894715 -93.76023470504555 -1.7072368220760143
-115.96677548451213 -91.52367824394823 -1.6754169160926107
-115.04080664585209 -90.94801729741899 -1.666332926079019
-114.61338395551337 -90.2948710741639 -1.6564487770720417
-114.14461193966989 -89.68759294464448 -1.6462182290447624
-112.96230996540241 -88.9156597220003 -1.636203772169833
-112.0928792409894 -88.11611449075656 -1.6257219517936194
-111.99711016028638 -87.41127240220443 -1.6157225250994192
-111.16399710051515 -86.73769373466224 -1.6050660170829687
-110.21031782458286 -86.08564116194967 -1.5959090770902038
-109.75500510295007 -85.34205618590953 -1.5856642231024012
-109.72604080944699 -84.7414274317355 -1.5806468051773526
-107.40471469956039 -83.32715802105598 -1.5560856570991242
-106.86034086892796 -82.9991435437712 -1.5500712500746283
-116.24684859325532 -93.73309028488988 -1.7080694021005696
-105.56099139148893 -83.21157380547912 -1.553596336083099
-105.30467544462776 -83.00685057939012 -1.5499358730696748
-115.4982683166445 -93.63017124061429 -1.709278646154756
-104.62160882870643 -82.6658344588881 -1.5519072442085464
-104.54894134610673 -82.63249150558461 -1.550347517187106
-132.47531037650606 -104.50137458164338 -1.8860626745160438
-131.70077092407897 -103.90797353632749 -1.8764898644978594
-130.92931197822122 -103.15207939758699 -1.8661748645122456
-130.224998829953 -102.42565944151538 -1.8564273445293735
-129.49924441051417 -101.63739014642643 -1.8461125645532084
-128.94653310542645 -100.77115859606177 -1.8356356245965457
-128.28798138220824 -100.13089315465763 -1.827115034613058
-127.43143527005824 -99.37917930708824 -1.8158296546068344
-126.7508197397546 -98.61714490962234 -1.8054686346220923
-126.12750887514783 -98.19722349197271 -1.7964049145634746
-125.41284894161593 -97.87902875362298 -1.7856656244417
-124.9795743771868 -97.76386851032174 -1.7786345943347972
-104.0157115265454 -76.84915406160437 -1.4734164843369184
-103.4007689271882 -75.74785771784008 -1.4641532944730806
-102.921020418284 -75.0991476035887 -1.456988874519156
-102.11457374983955 -74.33079219475536 -1.4458724145211623
-101.4469702019271 -73.63833804690066 -1.4361134645281535
-101.00173454510528 -73.06772416083265 -1.4271738545159747
-100.02690359518283 -72.23198110692508 -1.4153100145227044
-99.43837069061331 -71.67950234733765 -1.4065952945097293
-98.74153412351583 -70.83734379800097 -1.395879794541277
-98.12898929235065 -70.18443683843809 -1.3861999945383134
-97.53641811816263 -69.47723138376806 -1.3764336845494607
-97.22899426604246 -68.79597040790297 -1.3695229446101007
-129.39857530761978 -102.3103815242372 -1.845509684344841
-128.76312666393096 -101.5781667282428 -1.8363208243748228
-128.06516331598988 -100.83939711808793 -1.8262878643898495
-127.37997710245153 -100.13077362938012 -1.816293434396852
-126.65313604073665 -99.46183556796723 -1.805756494381437
-125.95073023147029 -98.66140850579157 -1.795350394406994
-125.42761465504839 -98.16238685514946 -1.7877866544014238
-124.87769755839535 -97.8092394180928 -1.7799953243487523
-118.86891144264987 -92.14627518205299 -1.7063575575292578
-118.27641483601222 -91.40226009303382 -1.6954268995278765
-117.39669306425098 -90.82614418155258 -1.686062086508806
-116.65315434108176 -90.21162736367789 -1.6807903195827263
-114.34610168632388 -87.91467799733184 -1.6467055215716822
-112.13458434537114 -85.51660917773658 -1.6142443676225802
-111.85454018564927 -85.69431020840551 -1.6103422154927682
-109.7293089844452 -83.21120723112088 -1.5745256875014235
-109.35826308123738 -82.54133745756248 -1.5653358365131986
-108.73359395753347 -81.95722500519068 -1.5580876355387558
-108.31246553178833 -81.50692794009464 -1.5506650315217922
-103.81527427749278 -76.82469450452614 -1.4720920543175884
-103.31212437260142 -76.23966228550441 -1.4645420043373822
-102.83594114284088 -75.77248252118157 -1.4575745343344382
-102.00690610758173 -74.95870599501765 -1.4454695143299408
-101.48702261877062 -74.49261306450717 -1.437933804315325
-100.8247188314676 -73.85319260020987 -1.428189634307141
-117.66160752164313 -92.14628584800622 -1.7067463655370239
-115.95950453031455 -90.0929960533955 -1.6757814915172444
-115.01328685985631 -89.47428203385304 -1.6664447145111607
-114.57414136462646 -88.62811811998668 -1.6561270765518272
-114.21544584391711 -88.23477572363193 -1.6460340904648887
-113.20876816592661 -87.34760468264861 -1.6368738890406458
-112.34677978653497 -86.66944141699983 -1.6261591588243693
-112.26304936415288 -86.23949698644743 -1.6188853175044415
-111.16718502794971 -85.19162730051357 -1.605183688536328
-110.2352042734302 -84.7199634431403 -1.5966182385027607
-109.70258587034893 -83.94047552640552 -1.585865616515285
-109.6627606145844 -83.26486175875029 -1.580010492595371
-107.48386552232418 -81.86914738865725 -1.556084658524425
-107.03303672711664 -81.3168400131128 -1.550004724564049
-116.32080195602751 -92.3171995651272 -1.7080340865128978
-105.73443613482887 -81.66887647140567 -1.5540424915420394
-105.31737629575724 -81.46876789008287 -1.5494445675085362
-115.14999985508888 -92.19242820706174 -1.709049071569577
-104.4785561602153 -81.42972399426431 -1.5522552545760901
-104.0816794669573 -81.17573604959398 -1.5496866295988545
-133.01760356359148 -103.38538513936692 -1.8913662949475714
-132.65185579607424 -103.04526258546811 -1.8876612649727544
-131.76310464724247 -102.42162061926969 -1.8764924849315003
-131.0039200232332 -101.63369335291713 -1.8660145449519752
-130.34577416313726 -100.95438979469125 -1.8565412649608386
-129.64657537522396 -100.20891784168424 -1.8462010949716816
-129.1362122501199 -99.42557873057103 -1.8351178949787235
-128.42277664040867 -98.98065871945776 -1.8266186349386773
-127.5953725749873 -98.55822454676448 -1.8163851948574188
-127.06683463027557 -98.29286730524865 -1.8084889047770405
-126.33061924663565 -97.16044686741006 -1.7981378049005432
-103.32504101081986 -74.25721719689514 -1.4619788848644704
-103.33076622726749 -74.51248512666928 -1.4608735647679183
-102.11948678521112 -73.33135638334281 -1.443646254768227
-101.56629719974023 -72.59521966943427 -1.4354003748181956
-101.24416611607319 -71.67096824696841 -1.4269513949189814
-100.32041218572277 -70.72246847468527 -1.4167808649924403
-99.4839711065936 -70.15752410887654 -1.4053061749279505
-98.84671620429194 -69.44312209313851 -1.3959084649485627
-98.20873973930173 -68.67245623005468 -1.386189884979176
-97.57154163019116 -68.01967804828348 -1.3762092149701628
-97.24720731649064 -67.54077805540314 -1.3691875249695542
-118.81908121061828 -90.60168677403144 -1.7056300529652972
-118.34814416075449 -89.91915004108232 -1.6952938329578602
-117.3817644548102 -89.27977654946 -1.685791060954486
-114.62628995595183 -86.28865369220318 -1.6513046181379156
-114.42159101305405 -86.53940281673371 -1.6464622679680072
-113.9088878326058 -85.67122483946751 -1.640119965594532
-112.27126352904608 -84.45718180617477 -1.6151085089488966
-111.81666901364103 -83.9732313717373 -1.6094462739769266
-109.73589006335207 -81.69461512856729 -1.575263712958581
-109.48808417029703 -80.98045974891637 -1.5660254849823079
-108.7956186207567 -80.42586568626442 -1.557915571982035
-108.27324840560175 -79.93585822636132 -1.5505306759774091
-117.62638411594247 -90.74608960691747 -1.7069426819494025
-116.6286625450422 -88.2575608738234 -1.6811937951608156
-115.93843904301814 -88.69656915190517 -1.6759187129273425
-114.97567473984948 -87.8768636128767 -1.6660458219691778
-114.58936089237679 -87.2101265324936 -1.6559976319628873
-113.31689211192659 -85.8512242491505 -1.6359348131583946
-112.60723802556572 -85.11679555382311 -1.6262984678800803
-112.43748290215316 -84.9839913239855 -1.6200032488930278
-111.19026500882387 -83.73059444105104 -1.6050898979606563
-110.14489334198684 -83.08063383106577 -1.5954242569571162
-109.66144140415443 -82.35386218756096 -1.5857879779765693
-109.60656169978715 -81.99647871348735 -1.5794604799543845
-107.35615166844562 -80.28394431191775 -1.555775563980673
-106.930898353558 -79.97893666785424 -1.5498310669508628
-116.24022727225646 -90.78388010386564 -1.708281691965135
-105.75456718907496 -80.14552467756963 -1.5540405479863821
-105.23443219751286 -79.82733501169741 -1.549106824980615
-114.62911879050894 -90.50723765187927 -1.7111051271022542
-114.84181288441606 -90.76535293338779 -1.708816636981229
-104.15999662935191 -80.05759065442527 -1.5522500169762548
-103.91077263749712 -79.97465124196839 -1.5489504229345157
-114.17135920588923 -90.37804528040473 -1.7112537661429115
-113.82853806664782 -90.54735111247787 -1.7101056840705813
-103.13158277546209 -79.63527459000349 -1.5511502590774742
-102.87925510687087 -79.76614936890543 -1.5493679680036818
-133.07624801495868 -102.2997490355464 -1.8912104552611515
-132.62136551045708 -101.42812304096847 -1.8865424854221393
-131.81392387836627 -100.62994273571944 -1.8756958754382382
-131.16467486676362 -100.14005952761045 -1.8663580653945522
-130.52484254877785 -99.56894533518263 -1.856685295367869
-129.87751573363843 -99.0893291168548 -1.846981665313878
-129.18908519636994 -98.69743493724415 -1.8369846552284348
-128.70478282735772 -98.02825741581947 -1.8304530752931265
-114.73410312168852 -82.29891222278738 -1.616100634598317
-101.27243841956835 -70.87261093278275 -1.4291996151967974
-100.22565990607465 -69.7079082832889 -1.4133847552205385
-99.69620895092757 -68.90239489962646 -1.4052726552934185
-99.00065975002751 -67.8748112293915 -1.3953431753947636
-98.35985415066439 -67.2176968819712 -1.3865119754099844
-97.63475917734729 -66.63749624541283 -1.3760452753700874
-97.32333859221453 -66.28338917372712 -1.36990009535059
-118.91334077560987 -89.10203910150949 -1.7056020394022042
-118.46375034583355 -88.40653567133117 -1.695484121402912
-117.41220731411408 -87.82246748088716 -1.6859582853829438
-114.69047592131814 -85.27564325236408 -1.6515943414392134
-114.58048757259185 -85.09371816858626 -1.646809101396663
-113.78809532857407 -84.30877581345452 -1.6379064896477458
-112.71444813834916 -83.0472485945805 -1.6225083916080596
-112.45613157124836 -82.97932597284938 -1.615730424392434
-111.99539492754955 -82.51608360535988 -1.6095899314048663
-109.66402251067568 -80.09012283995105 -1.5746159304136882
-109.57863422569537 -79.50492600060088 -1.565810871408452
-108.7701532660395 -78.94665558899813 -1.557526123405758
-108.33028707570452 -78.49865133531323 -1.5504998753960457
-117.60541298569139 -89.16501699963788 -1.7067500394067725
-116.6555082977121 -87.52078687909132 -1.6815803953834674
-115.90569760814279 -87.08047277096921 -1.6758295493969975
-114.93769816213262 -86.29011878939 -1.6652975234170995
-114.64761019809066 -85.71542055359681 -1.655914622397254
-113.29931890074154 -84.15035212607421 -1.6333970479038509
-112.80903510818061 -83.8310313554128 -1.6265177439595362
-111.17976327287758 -82.11724008301968 -1.6045076484196583
-110.14538936950044 -81.51941271878114 -1.595175945407583
-109.64648003664524 -80.91938464925195 -1.5858851343969669
-109.53862447154529 -80.42773913174547 -1.579374928410297
-107.34106749393567 -78.85445833922127 -1.5555423243930122
-106.89028253398607 -78.29893680932088 -1.5496989684383011
-116.30108794214736 -89.24427927071369 -1.7083956424165336
-105.72927992013794 -78.8056037645729 -1.5538971993743902
-105.25240040172385 -78.42421824912421 -1.5488822873854358
-114.81455159602238 -89.45271226751225 -1.711275030413268
-114.73870714000924 -89.32831810216564 -1.707813751380391
-104.08151348295519 -78.65437284498451 -1.552349810387586
-103.67895560052105 -78.27675493861335 -1.5482193124152048
-113.70832199348577 -89.4342149818479 -1.7115658494244752
-113.36152740199825 -89.39254705355197 -1.7090081023855206
-102.9578321434384 -78.52114015411523 -1.5512995164054644
-102.2849710068514 -78.35952567191008 -1.5490513714076861
-112.44735322137018 -88.91318656255709 -1.7115479005761074
-112.43810032110933 -88.94577241909366 -1.7103768785432019
-101.40273470507344 -77.95142216843472 -1.5486670555190558
-132.7010039615264 -99.98389886366587 -1.886525945843108
-131.93220230329808 -99.24882876126202 -1.8756663058405363
-131.33020176345232 -98.65184717374312 -1.866375715829036
-131.06260578464563 -98.23470289805674 -1.8608976658412582
-114.73932729579191 -81.40566911518505 -1.6161088298590516
-99.08002161141933 -66.39864652193657 -1.394565825809847
-98.45839386944483 -65.67889654891228 -1.3860423058494877
-97.70809521799715 -65.01803536881592 -1.375747285836551
-97.41942132182226 -64.71904468154958 -1.3697982058048936
-118.95455269897026 -87.6360299027044 -1.706107360839956
-118.59726801697434 -87.07007018335561 -1.696208488807251
-117.40015620491236 -86.27333378851273 -1.6860573418368257
-114.78420229632776 -83.8820173351285 -1.6523916468616844
-114.6903338773285 -83.62558951503152 -1.6463598758159588
-113.82422244823344 -82.94249464071804 -1.636642269921046
-112.99910743212362 -82.211074008734 -1.6259744849212434
-112.61190392631984 -81.69789438335634 -1.6163395657784163
-111.97868315041025 -80.86385432971359 -1.6086261898675855
-109.6545172456284 -78.58737311164711 -1.5734706908291753
-109.66328252387362 -78.13303691787794 -1.5661488748154042
-108.72701597885349 -77.35031177923219 -1.5571377998636728
-108.37618614095025 -76.97064805608251 -1.5504590988409697
-117.68018304724384 -87.72378038417585 -1.7069797638317907
-116.65053791671377 -85.91358188326723 -1.681571726852137
-115.90503334360116 -85.60146833908644 -1.6757868688275894
-114.98801509545237 -84.92329720843699 -1.6655263018203907
-114.7236363851451 -84.3352365815573 -1.6568325168182134
-111.07762626150067 -80.6394785651496 -1.6031513408236384
-110.24891717685993 -80.0462342477903 -1.5957117278480346
-109.63529587469972 -79.43776066078586 -1.585312527817734
-109.54147366741832 -78.81621452468742 -1.579276599878435
-107.34593444072239 -77.32215226671525 -1.5553269958357032
-106.79913133746992 -76.86036842634805 -1.5495772638555185
-115.73223009207567 -87.51807134484827 -1.7110782759736967
-116.21232548687179 -87.81631915418713 -1.7080116468254154
-105.6324604400704 -77.15329313088984 -1.553657141851594
-105.37748680944925 -76.90509536554032 -1.5487817798265755
-115.05416837400588 -88.09937345490361 -1.7114076658107051
-114.72800405898482 -87.694109447322 -1.7069462658397767
-104.04061916400929 -77.08301753919085 -1.5523515918460065
-103.74540410409257 -76.8736226060272 -1.5478784788177065
-113.48507725375295 -88.07197605675034 -1.712028455831102
-113.27890204519078 -87.65102378925901 -1.7083822988810407
-102.99156125687233 -76.91935417610372 -1.5514500638757345
-102.19923863191816 -76.84768664028022 -1.548779909843285
-112.20869175831172 -88.02676860802734 -1.712293607849588
-112.00733593327148 -87.77484605270759 -1.7100056908773593
-100.99355832315568 -76.77259186079891 -1.5483449818565003
-111.24306742222791 -87.43422066021049 -1.7120195160169651
-99.85200045661121 -76.12828575932548 -1.5481562370406812
-132.71410733720046 -98.57196754901517 -1.885685966238202
-132.08830833125302 -97.8116189857193 -1.8761301662690584
-131.49191879755526 -97.20319258829517 -1.8667352362588114
-131.13452287601075 -96.91572540204885 -1.860797276224015
-114.62601236615778 -80.00657275518955 -1.6162033622690755
-99.191931982653 -65.28284319107415 -1.3947246261385147
-98.50844644751831 -64.37563624114273 -1.3851203362112425
-97.84758408752191 -63.552041121412685 -1.375978666268824
-97.49712706867362 -63.37866415151882 -1.3701436162028025
-118.96011764385591 -86.03617257574935 -1.70608507630621
-118.66501911618101 -85.50101678203774 -1.6963038122668692
-117.40599865310641 -84.90105058970772 -1.6859569042351317
-114.90004183912687 -82.52852283574026 -1.6525008562586987
-114.74328594429588 -82.00388265619307 -1.6463720762892757
-113.98695110295289 -81.50167166051911 -1.636729151643089
-113.17822171752582 -80.58556613275394 -1.626005899296053
-112.65344567069177 -79.88977079261977 -1.6158423322959339
-111.82598946144971 -79.27259371548094 -1.606923689297757
-109.6519243863362 -77.12665993450118 -1.574185648269571
-109.71442306814464 -76.64645444475603 -1.566524175256559
-108.81467114239855 -76.05904846858246 -1.557292831243449
-108.31990834483491 -75.58434505972376 -1.5503827832438475
-117.67505566372546 -86.18686746714702 -1.7070002382805374
-116.65118427256985 -84.29199956474116 -1.6812600923189467
-115.93892144721312 -84.05760431387262 -1.6757506672772315
-115.09067958452597 -83.461343944972 -1.666190365260131
-114.82761509838876 -82.9079601957605 -1.6578212932543268
-111.11941966364614 -78.97311811642412 -1.6024117172949583
-110.34328655410737 -78.66771310477618 -1.5959295722545204
-109.68657211676063 -77.94227795193565 -1.585994785267619
-109.57750507092193 -77.61620943302502 -1.5795396992337496
-107.25860271986089 -75.7446720664981 -1.5550240252898209
-106.86828932056429 -75.41177535371106 -1.549548832277524
-115.71945946547164 -86.78097410462021 -1.7110711541885752
-116.23724359141062 -86.24039331364743 -1.7082060332890179
-105.71764667593426 -75.78804162544048 -1.553622169249157
-105.38563008492467 -75.353481473389 -1.548668360276935
-115.0700627202793 -86.66888128797503 -1.7115044872299332
-114.69500492010415 -86.2330919428031 -1.7068460712639726
-104.03743615255902 -75.61347429292901 -1.5523043182737468
-103.76784731840462 -75.3495409763025 -1.547642668257589
-113.54543279986031 -86.61275541000786 -1.71230790526236
-113.28074508956854 -86.2103912387777 -1.7081130792959125
-102.85636210159402 -75.51872147161373 -1.551380177282921
-102.23697927119585 -75.31420173498182 -1.547985775274754
-112.04652442882005 -86.5658783040063 -1.712878776287442
-111.80064225020881 -86.40088565511148 -1.7096541872711377
-100.73471648280093 -75.30164751332697 -1.5478532072757671
-110.7217555414978 -86.4443916506049 -1.7126108383175274
-110.86036072618757 -86.25186130646412 -1.7107216173359399
-99.47809998234595 -75.08900655879742 -1.547066790322083
-98.4037610095249 -74.50614241414812 -1.5464647834800824
-132.85143508141638 -97.4160188121606 -1.8862116865859127
-132.30895614335984 -97.06543001821989 -1.878167646527445
-120.70517455847508 -84.42345588734077 -1.7120373828956017
-120.50464541365442 -84.54023373984566 -1.7093637568081106
-119.35716863239838 -83.43295123254359 -1.6924721877935862
-115.82500471553863 -80.02473312910644 -1.6450340958398837
-114.27656191208365 -78.37537497304936 -1.6153719777283042
-110.68527918090655 -74.86009733813347 -1.5667584667823446
-109.50941169831262 -73.52947770340958 -1.5484293238042444
-118.96790645957756 -84.67419942484244 -1.7061566097049448
-118.73526647529008 -83.92639924452669 -1.696301063726151
-117.56882958460955 -83.35501326503044 -1.6864365506957155
-116.64898048861596 -82.73666537469896 -1.6808277837640195
-115.04138055594957 -80.96970147634727 -1.653693133737252
-114.75320986436246 -80.49335768444158 -1.6455815857141198
-114.0678867744517 -79.78197820415504 -1.6358721597276213
-113.35869547093002 -78.9860518853383 -1.6259656764618489
-112.74760507551095 -78.3457128108085 -1.6153681837368812
-111.97720415982369 -77.72593013936415 -1.6066853997441775
-109.71158392170258 -75.68958815368103 -1.5743983856930348
-109.87697398858853 -75.13640529671727 -1.567642552719408
-108.89004645069332 -74.51891282088275 -1.5573908366946854
-108.4826111971332 -74.1368599975932 -1.550485392668148
-117.68029051183476 -84.6860880742939 -1.7068352157150368
-116.06883429329343 -82.73257600530877 -1.6764677226780882
-115.17462870877382 -81.91852527587025 -1.6658743307038766
-114.94477294542658 -81.61087834606758 -1.6585495136472541
-111.18211983528285 -77.69269018168643 -1.6019860356599698
-110.50914354599357 -77.21257196388837 -1.5963565796875367
-109.71252665176024 -76.391575694328 -1.585379933707693
-109.62100042952488 -76.06086528923346 -1.5796971046906092
-107.2329921060792 -74.34802639851256 -1.554850993693783
-106.89982654274785 -73.86838664989503 -1.5494947197266693
-116.23298361089344 -84.71047050342631 -1.7081163437335243
-105.69991142260736 -74.26311031666825 -1.5535459576924766
-105.40208480773873 -73.70768568308222 -1.5485962537555946
-114.98690407899537 -85.00963454384615 -1.7115462257147913
-114.6937949904744 -84.73348428699774 -1.7068163887008347
-104.17883925794204 -74.09940146187776 -1.5524016747173672
-103.81595388845737 -73.73773129586121 -1.5475353437256303
-113.4983527294802 -85.0455854907644 -1.7125033497234294
-113.21824028912768 -84.68347207863138 -1.7079914417389042
-102.88236373586489 -74.15240650662271 -1.5513772796814351
-102.15216169014457 -73.70473620487172 -1.5476498437375434
-112.01610556895142 -85.11909098544149 -1.7132288497164843
-111.89926312559501 -84.91606976886989 -1.7092154086955103
-100.86143381061508 -73.85731341843228 -1.5479536036991046
-110.44334676366681 -85.1277923261828 -1.7132041287134518
-110.5910220173783 -84.93043762958692 -1.710538988717767
-99.19096700355202 -73.79174366190807 -1.5468044706952697
-109.40052536674037 -84.8449315822198 -1.7128938647897662
-97.86846837979756 -73.3577106525362 -1.5458156748021243
-120.83836670659862 -83.68397997737068 -1.7150854231722235
-120.40427428556126 -83.42865155558106 -1.709170042128503
-119.28097098051937 -82.53515418860971 -1.6916917210398899
-118.90991604034105 -81.72521488348625 -1.6905323332529925
-116.01144601831565 -78.94068109813202 -1.646341106182233
-114.22822461866062 -76.87209192539623 -1.613700318133428
-113.42526735301058 -75.94958516067507 -1.6108994253465667
-110.61193880025856 -73.70647454414282 -1.5679842141433649
-109.18260719304337 -72.25420110627473 -1.5457235411221915
-108.93506853090528 -71.17221494395817 -1.5392797953090598
-119.01159911393299 -83.09890264448043 -1.705550192152362
-118.80570774311013 -82.46440397839041 -1.6965052921567152
-117.67304549206489 -81.8009908569594 -1.685502461130379
-116.57714107321095 -81.06941547769436 -1.6787123632081071
-115.36412762348316 -79.42313263344451 -1.6617788323499776
-115.26882090045494 -79.64856996880681 -1.6554744641582384
-115.01005628189203 -79.00745331287001 -1.6454808981455658
-114.19575914349852 -78.3887524169106 -1.6365793627481753
-113.40132463027535 -77.68161440302407 -1.6256090748352445
-112.86180372371513 -77.11445909439857 -1.61633983311547
-112.29694791362608 -76.3705224096984 -1.6068607851430723
-111.15903283155176 -75.64828661340869 -1.5993044472027647
-109.88029915786129 -74.2955805231037 -1.5820388302523591
-109.92447478163898 -74.20493655383433 -1.5757767771536706
-109.95624588961341 -73.7034133606969 -1.566548450115568
-108.99067818220489 -73.04958219164143 -1.5571202171179008
-108.44511800730196 -72.43998490843117 -1.550449109162424
-117.61238673781268 -83.2238490870688 -1.7066599861380898
-116.05465127695228 -81.00680536886807 -1.6745449441430964
-115.45437967731752 -80.4182161842105 -1.6665640051553177
-115.17328783994931 -80.33517955580376 -1.6602432360532366
-110.55627088191765 -75.51779864300258 -1.5943001761408326
-109.98897803986343 -74.9226374214582 -1.5863179481549452
-109.73128147744175 -75.11394366197825 -1.5806609749860991
-107.27538991967842 -72.79994020398856 -1.5547898171441576
-106.91370054929759 -72.39834745446583 -1.549459434154794
-116.26381719545873 -83.26139844976524 -1.707627779146475
-105.71398866373127 -72.58213810734938 -1.553461811181157
-105.29225436965467 -72.3552220818843 -1.5484852251479073
-114.81911559029145 -83.60041253262438 -1.7115551071260573
-114.7159788423603 -83.27536570060872 -1.707555792140962
-104.15942412945773 -72.55909451543918 -1.552361248165887
-103.72868411583866 -72.3856660044452 -1.5474610611185613
-113.64168547351049 -83.61395004302886 -1.7124446841398842
-113.29462124091935 -83.26608861246851 -1.7076916311463826
-102.92505690391226 -72.68708407567374 -1.5514699801107412
-102.21504030739186 -72.30672432697475 -1.5475447831432625
-112.07005089663974 -83.59848799409244 -1.7133890971632662
-111.88899474539994 -83.49719347797438 -1.7089625581043624
-100.7099948287142 -72.22375379546105 -1.547577149168113
-110.65136739724824 -83.76583397102014 -1.714054278127741
-110.44237641964567 -83.35779563019585 -1.710275433171261
-99.20462552778197 -72.19513801040597 -1.546598612156907
-109.10662683628482 -83.61826102338225 -1.7132424401545676
-109.64622123185246 -82.94451301219453 -1.7109399503050995
-97.68711329798704 -72.27218630334801 -1.5459822851221154
-108.15660107185411 -83.27716945740632 -1.7140264942697359
-96.51878325082362 -71.7368692909996 -1.5449008032566638
-121.47873253432823 -82.64085424782436 -1.7238056876507684
-120.80284112296887 -82.44098131724871 -1.7168023945691318
-120.31732965691934 -81.91097849384208 -1.7092109465720455
-118.86703537773134 -81.1066896970367 -1.689914165421072
-116.10467748160292 -77.98584339453387 -1.6477978444898806
-114.03140939954629 -75.68060224807473 -1.6122185114513912
-113.48902470422993 -75.39072181911894 -1.610584511503302
-110.57218141523373 -72.79624535277196 -1.5691883184329514
-109.16450968658896 -70.74194092277084 -1.5468047405849426
-108.5589598799094 -69.909857265564 -1.5362676006171154
-108.26402242423357 -69.02520700993554 -1.5301901177537371
-119.09191578148943 -81.5912454425117 -1.7058459885980761
-118.92947671475895 -81.04508522613492 -1.697322516587079
-117.75217368779832 -80.53945402794898 -1.6848028214844055
-116.57670376797198 -80.02434085013894 -1.677387549486496
-115.61745171037303 -79.05162136741727 -1.6652091505268982
-115.45211040922021 -78.63474342162033 -1.6563911984723034
-114.86784556752531 -77.43007443040321 -1.6439618005753527
-114.17216575060334 -76.78224088082092 -1.6360251709057416
-113.43697614435828 -76.22893874298016 -1.6261221464692615
-112.93407191505992 -75.6258604549207 -1.6170440785637863
-112.33655802008651 -75.15093049012454 -1.605730217476252
-111.03554006742745 -74.54042262788809 -1.5968194224762864
-110.03037209990464 -73.6251331003131 -1.5830293734677308
-110.09007019316712 -73.16680928997626 -1.5758694284583574
-109.84720841239799 -71.95998265478737 -1.5643193415796066
-109.08120245861363 -71.53464747965523 -1.55730452256351
-108.49291274039477 -71.05329056892813 -1.5505466305688895
-117.68325479695002 -81.66459726535223 -1.7068064795958713
-116.08943614547297 -79.98514243947488 -1.6733444914171411
-115.72630639347253 -79.61897125051917 -1.6685375114279033
-110.52501065391186 -74.55807339901268 -1.5923956513827402
-110.18761913858081 -74.05837462667326 -1.5872173824250349
-107.36231380228827 -71.37521139914013 -1.5546965065579053
-106.87399330360813 -71.02275028875833 -1.549460045556086
-116.26944521253078 -81.79636549327307 -1.707757583576438
-105.6602447469471 -71.10579598907677 -1.5533188496089685
-105.2837686176916 -70.82578064726361 -1.5484173285927088
-114.71697573256242 -81.96234554141243 -1.7113916266006362
-114.84912460132126 -81.72038232533274 -1.7077192955978382
-104.07775164672157 -71.0531227923673 -1.552208012602137
-103.60172745892277 -70.82182128989248 -1.5474002205735395
-113.49905660857016 -82.09877212925844 -1.7123787765805645
-113.2617954164688 -81.84125067509542 -1.7075858335599126
-102.805753809824 -71.20882260738269 -1.551322667539026
-102.15850490283994 -70.69463750224028 -1.54763238761528
-112.16612938510012 -82.10704528583476 -1.7133847015982517
-111.82100743300569 -81.83182526230237 -1.7087520945859667
-100.86848597658401 -70.82570199023466 -1.5478190775807772
-110.7068853751073 -82.48947332480594 -1.7142336885036573
-110.38791323356371 -81.8734110630499 -1.7100348385994677
-99.20983310917116 -70.83308391968103 -1.5467966045581925
-108.96849883978133 -82.23976399146021 -1.7132304895564545
-109.45249049152282 -81.70532293946042 -1.7108744966652796
-97.6688867722897 -70.72488469681329 -1.5462399935786333
-107.73468181503938 -82.14643044489 -1.7142277426036086
-96.07609470675345 -70.49982388396347 -1.5445532116105805
-106.86221487723965 -81.85938721513995 -1.714989676702568
-94.90139730614042 -69.95581948775086 -1.5434484847471988
-122.18757344897207 -81.63150174616894 -1.733321698135362
-121.56476810113544 -81.5494473776082 -1.7267939590288588
-120.63417959648747 -80.73324713146786 -1.7157002310452762
-120.33212851901013 -80.37092989256054 -1.70907042901849
-109.11686860988313 -69.16600485107998 -1.5468034370446377
-108.37069324354653 -68.63449795288625 -1.535521528974246
-107.97213837644136 -67.71475440031794 -1.5264273980608254
-119.08642139655609 -80.152087777547 -1.7058665970183091
-118.94664637558135 -79.50809025502662 -1.6966803370226085
-114.8243018769316 -75.97230773940254 -1.6438670849987096
-114.22164221743762 -75.39875503602264 -1.6363785691163844
-113.41996899607437 -74.65924428630208 -1.626363817631991
-112.95738910194724 -74.02553421661769 -1.6168024330257937
-109.80979845340231 -70.13974156359482 -1.5630639040855083
-108.9483493681505 -69.83776824181547 -1.5556959130263681
-108.37736327565166 -69.4351133004761 -1.5506244890424887
-117.66584646806056 -80.11544254045864 -1.7066073790438014
-107.13306454835593 -69.72633162630716 -1.5543079970311418
-106.82218044367684 -69.4336216925012 -1.5495778910220106
-116.2344032918622 -80.21730308733478 -1.707543537032794
-105.56219980602611 -69.71795159714671 -1.5530716100088804
-105.36427589636546 -69.4514880857981 -1.5485403009960652
-114.67457503568104 -80.6195101860402 -1.7113060719906494
-114.85409955957748 -80.2915183866792 -1.7078120180165095
-104.11071919841334 -69.60715806529006 -1.5520907260216
-103.85314289125878 -69.30091622184236 -1.5475421020200426
-113.51939767903289 -80.62649014690311 -1.7121143340047642
-113.09751202912692 -80.22126785151553 -1.7076596460339577
-102.95636732015979 -69.58996175618914 -1.5513035500108867
-102.17219707731631 -69.27076925760235 -1.5475472430289396
-112.12780052362821 -80.69410311771301 -1.7132157680070499
-111.77396643931209 -80.31985264777757 -1.7086965360259188
-100.81874844525571 -69.25369722352825 -1.5474314310316055
-111.18117806511125 -80.66696556519537 -1.713925883029156
-110.44361422360417 -80.2703659293262 -1.7097361980611296
-99.36849578241028 -69.39308842221607 -1.5482177130066552
-108.6136372700949 -80.56187134332191 -1.7122863750270523
-109.2292936214567 -80.1641063636959 -1.7107365501121163
-97.66796685886223 -69.27331672244198 -1.5468832920149294
-107.53997694476818 -80.7052078513825 -1.7138493060164701
-96.03364720180079 -69.12028799517668 -1.5446486390149161
-106.45807056815964 -80.64729296942141 -1.7150316230569902
-94.60659887974643 -68.94737812205508 -1.5434844190420924
-105.4949322558324 -80.15451606223237 -1.7159985082200602
-93.62666265137099 -68.35873208225865 -1.5426007581961505
-122.85724606477756 -80.62167838648602 -1.7421161786056751
-122.26873096021586 -80.73018225798516 -1.73602865845238
-121.38784390802371 -80.0454496058943 -1.7258431684485955
-120.68342705141787 -79.3776098517296 -1.7165433244575805
-120.30701430081645 -78.80007047622502 -1.7092126684795725
-109.13615630674984 -67.66722229208388 -1.5473839714934527
-108.35578396361868 -66.95171003968744 -1.5360963944766246
-107.73979569910247 -66.32601916720157 -1.525760978452621
-107.3664471253419 -65.5614631281577 -1.5179705585199812
-119.06790626897276 -78.59897956099108 -1.7051426844569055
-119.05981147833293 -78.24981888697207 -1.6974591244052248
-114.88044108920413 -74.45858004550243 -1.6436144924352365
-114.30130469189817 -73.88446007371618 -1.6361212171529815
-113.42656834089907 -73.04323516258466 -1.6248820312737926
-113.09211109016945 -72.73766652151988 -1.6173402354122282
-109.86812003044967 -68.7068514632545 -1.5628418254990635
-108.95631384595845 -68.35984259432124 -1.5552328374482451
-108.26476774939697 -68.00111818565492 -1.5506682474616784
-117.66356028083901 -78.68504064790183 -1.706625521461431
-107.23701308657306 -68.28283220284307 -1.5542207284504856
-107.01350947113961 -67.79681061524538 -1.5498722795053723
-116.28628885801658 -78.82033252888377 -1.707357034436582
-105.60587239495003 -68.11256098211649 -1.5528584944729353
-105.28717345305185 -67.8660210379914 -1.5486391934605428
-114.45229156593957 -79.0763040879439 -1.711189284438489
-114.88014780405888 -78.77386260165756 -1.7080849184646827
-104.02847405829536 -68.02166835707938 -1.5517997814782944
-103.87048335755932 -67.84729070657897 -1.5476690384466207
-113.4142157131711 -79.09581079200944 -1.7119468374479365
-113.21827240171513 -78.65670131581923 -1.7075857524888858
-103.09468828222045 -68.30066487026656 -1.5512277633854772
-102.24674232798792 -67.96896451911275 -1.5486817504313632
-112.20667937007909 -79.06222057849703 -1.7128204184751914
-111.83002343167287 -78.88127972931849 -1.7086216434440729
-100.83911689628556 -67.73722853776002 -1.5479417894841776
-110.53081643634283 -78.9511598362363 -1.7140360175318798
-110.3279576295254 -78.84592928724476 -1.709772802477388
-99.20901000874947 -67.58141114473759 -1.5468235915072874
-108.72732474140865 -79.15028586577628 -1.7132111564573096
-109.14904085508778 -78.95039012555583 -1.7106826304650957
-97.53376326688077 -67.6838402824192 -1.5458157064572675
-107.63892288304079 -79.28474811516443 -1.7140930894357083
-95.97526425785108 -67.644842658917 -1.544226475436887
-106.21152918986931 -79.34111689943771 -1.7152906434431947
-94.46643538176545 -67.42634294824992 -1.5429734884755888
-105.12751298828763 -79.10325508519423 -1.7160404105275642
-93.15163803905966 -67.43474403409148 -1.5422037844577576
-92.63011900719945 -66.74184589607498 -1.5409808236354474
-122.95431028233143 -79.73422038683594 -1.744892408920034
-122.16980286105932 -79.2687221656607 -1.73638010888573
-121.33122350832923 -78.41337208599197 -1.725322909914298
-120.69965092525035 -77.74951126807397 -1.7165451869325554
-120.20441435852521 -77.2992809605617 -1.7084383669019
-109.31565327539539 -66.37060018883449 -1.5515132249542065
-109.14354490581087 -66.21707719517943 -1.5468631389060716
-108.384086810316 -65.51664428457198 -1.5364808669029348
-107.70507316082633 -64.72403461831968 -1.5258263989212482
-107.12905861241946 -64.18940398936206 -1.5157917888766919
-106.80095927340139 -63.33600546771172 -1.508496988979872
-119.0424746113497 -77.10182655829166 -1.7048755518883068
-119.12934209137536 -76.6407015805743 -1.697320535871856
-115.0065223576451 -72.90092290039527 -1.643674365890822
-114.30387249814576 -72.36327194752201 -1.6361403380971142
-113.45071700523222 -71.71584676998047 -1.626228101487907
-113.11939497360555 -71.0432627136165 -1.6166180228920766
-109.90968427650492 -67.24272058451315 -1.5624472209182845
-108.93475676465201 -66.77872082061299 -1.554987020904567
-108.01172150045501 -66.71215600979212 -1.5507719968397589
-117.70088619343737 -77.09560928938689 -1.7062400659173866
-107.18890341476683 -66.70469836457207 -1.5538453689033476
-106.79262422749657 -66.35415136957778 -1.5500188479291437
-116.1633944405977 -77.32028580425941 -1.7075372638777666
-105.58929438742747 -66.66236261876665 -1.5523210248852375
-105.25920438537709 -66.46886457247783 -1.5490946548772129
-114.23609274876719 -77.84354899980042 -1.7110825627959674
-114.81792803796328 -77.33855209857455 -1.708338417888447
-104.17864402265158 -66.57712476820518 -1.5516405258965045
-103.80148048991771 -66.23754038826328 -1.548230439927424
-113.44035415441172 -77.50647124100527 -1.7115520909036797
-113.32908328159084 -77.27566772934368 -1.7078225688964834
-103.1579034299874 -67.01981234976688 -1.551071442755995
-102.31750382419341 -66.27034830675645 -1.5484051929213456
-112.00149214938938 -77.5937954733242 -1.7126099398993444
-111.78137013016786 -77.48150263091867 -1.7087421568548142
-100.68356200768352 -66.33625082932127 -1.5474508038830501
-110.63727937803478 -77.74450742618893 -1.7136632508764273
-110.30818556923145 -77.50377930046761 -1.7098164938697837
-99.17162164066565 -66.19502480369178 -1.5462844749009417
-109.02897925571692 -77.67609555633257 -1.7138213738995438
-109.17431929177444 -77.3900908446989 -1.710648916919582
-97.65942398442994 -66.11419958766231 -1.5453456939057604
-107.6770678293152 -77.75841724043347 -1.7142705618845053
-96.0398385841456 -66.07639094326785 -1.5441996388938888
-106.24770983907518 -77.81497288177894 -1.7152438468874558
-94.48868775794723 -66.08610528106925 -1.5436560218801922
-93.61693452551728 -65.54182105695907 -1.54091575098421
-104.8153038726584 -77.8565421951065 -1.7161071158925796
-93.04433512861921 -65.96583907002821 -1.5432364349068912
-92.8504107596608 -65.9833430104164 -1.5407747858525955
-104.04064394218449 -77.8213739534766 -1.7169426759195352
-92.0207778885542 -65.9957475537848 -1.542021185873883
-91.95881513134304 -65.7509187749671 -1.540499508914896
-123.65596441733008 -78.91206035470955 -1.7541351593445607
-122.92663353247109 -78.50687501633277 -1.74621073930441
-122.10294050933105 -77.6744709184671 -1.7357983993391701
-121.40583458723707 -77.08010784651206 -1.726160423319964
-120.72103916730346 -76.44615150139853 -1.7165763683133857
-120.22353045850518 -75.71011680962603 -1.707764365352012
-109.4075234092057 -65.050918136353 -1.552301415354925
-109.20165448947608 -64.69833281645074 -1.5472377693565953
-108.37277418323067 -64.1446108084946 -1.536075309295071
-107.73730074858025 -63.264585724165855 -1.526281519356083
-107.12386736700054 -62.68614198884994 -1.5166941393332443
-106.5451410065523 -61.93463072432307 -1.5059989293387543
-106.22092640896739 -61.10799314805954 -1.4994627594492873
-119.12203905449095 -75.54539670033907 -1.7045994263368203
-119.26577180772155 -75.28195641186272 -1.6984007742898055
-115.12129621820439 -71.37687414556922 -1.6425563573130666
-114.5479344750614 -70.98771619444008 -1.6368939885134417
-113.53378696014934 -70.35495211280755 -1.624933929559037
-113.34032388282763 -69.59636406405612 -1.6170644493230764
-109.92028877002305 -65.93225512602746 -1.561780960287251
-108.89319342568018 -65.27034891172781 -1.5544630743341092
-107.80205680618386 -65.5932378537006 -1.5510421031715593
-117.60726377524477 -75.63797900251262 -1.706265860343112
-107.14804560814885 -65.06074198144836 -1.5529796713656125
-106.85451478686893 -65.22518741395592 -1.5505250472685923
-116.06900312463861 -76.29664532358707 -1.707468257174997
-106.02811493612207 -65.83863765997728 -1.5525381651298678
-104.74655631096337 -65.66094056034058 -1.5502627651362364
-114.5042027327562 -76.41729616163039 -1.7091284101729756
-103.3575149539814 -65.58070014459557 -1.5496955151483087
-113.26256577563366 -76.30951106428662 -1.7113600602490115
-113.30206322265373 -76.13702977511232 -1.7086951512460753
-102.20675694652225 -65.24761585977313 -1.5488451952284823
-111.91477808404277 -76.08317985048684 -1.7122261383323416
-111.70964719514465 -75.78391169958962 -1.708563604346456
-100.85907019323997 -65.26619281751273 -1.5510972592680647
-100.71926542937035 -64.81188728684924 -1.5479608183379183
-110.56897209310077 -76.22773769419598 -1.7132818333112674
-110.41367745809974 -75.9242300369747 -1.7099475493331777
-99.17000061679447 -64.69099743346322 -1.5462234553384668
-108.9600923561687 -76.07689166670775 -1.7133834223573012
-109.32389583987121 -75.9283166914862 -1.7107053483471282
-97.61532503386623 -64.70384681537686 -1.545309477316455
-107.64464162749451 -76.22122974566354 -1.7138097373237147
-95.96448463054499 -64.55408542350574 -1.544282094339613
-106.16747451657912 -76.30882285129748 -1.7149210583203693
-94.53492860001718 -64.56349366087585 -1.5434752713207462
-93.72486953228155 -64.54974654151569 -1.5409971332752375
-104.78788725500169 -76.31257038646385 -1.7159462283397615
-92.95499674035429 -64.5738723176151 -1.5433617023154493
-92.77115885803651 -64.32297379547364 -1.5404519973304969
-124.32125253920879 -77.86475606968659 -1.7633563698343344
-123.76762681279794 -77.76851935370405 -1.7574362797441108
-122.8445908503003 -76.81774455267805 -1.745861959790182
-122.18533003038945 -76.42381499003098 -1.736787979723777
-121.396678800905 -75.45454458927287 -1.7256853447846692
-120.75249668984343 -74.8908598242133 -1.7162830397612232
-120.138016222753 -74.17992277461587 -1.7066521507761652
-119.43679190855532 -73.3669804826049 -1.6996162618727175
